# .PCD v0.7 - Point Cloud Data file format
VERSION 0.7
FIELDS x y z
SIZE 4 4 4
TYPE F F F
COUNT 1 1 1
WIDTH 1515
HEIGHT 1
VIEWPOINT 0 0 0 1 0 0 0
POINTS 1515
DATA ascii
6.6987715 2.0733337 -31.898624
8.0515537 2.4265761 -31.83473
9.7469254 2.310071 -31.678946
-7.5688958 3.4295073 -31.575397
-6.6889248 3.5619893 -31.702383
-5.1333523 3.9305716 -31.728472
-3.9431725 3.5999217 -31.977814
-2.1807482 3.7636719 -31.963137
-0.69184291 3.8793666 -31.945015
0.64358717 3.8716192 -32.032856
2.1866257 3.8089356 -32.173729
3.6738639 3.6760578 -32.093788
5.1197138 3.8289866 -32.07246
6.6481524 3.7100914 -31.917561
7.9963059 3.9212046 -31.857796
9.6772375 3.8039825 -31.765625
11.488658 3.5720744 -31.517939
-6.8606777 5.3516116 -31.695486
-5.4083729 5.122395 -31.804438
-3.8853562 5.2648096 -31.92041
-2.3048182 5.3684344 -32.00383
-0.81450742 5.4160938 -32.069199
0.71315521 5.2120323 -32.056297
2.1422455 5.2985649 -32.1525
3.5437512 5.2039409 -32.128178
5.0751944 5.3493409 -32.007748
6.6867728 5.2349396 -31.954836
7.9664526 5.2385449 -31.809055
9.4390488 5.2551808 -31.742645
-6.3807368 6.2644391 -31.856794
-5.2089505 6.6245508 -31.85911
-4.0028276 6.6777101 -32.044273
-2.3668461 6.8345413 -31.995211
-0.83350104 6.599761 -31.934269
0.73548263 6.7033973 -32.084415
2.048692 6.7595439 -31.960201
3.5560789 6.7744088 -32.151073
5.0215464 6.6227274 -32.080154
6.6778736 6.8260183 -32.009373
8.0860214 6.8343344 -31.911686
9.8135605 6.6087761 -31.768106
10.577999 6.2287841 -31.574398
-6.7017899 7.741281 -31.741213
-5.3891206 8.0592375 -31.788717
-3.7841284 8.3842516 -31.932341
-2.3064137 8.4037275 -31.930695
-0.75424558 8.2352705 -31.980204
0.63563246 8.0852327 -32.19648
2.1688628 8.1301641 -32.107872
3.5378189 8.1107903 -32.041183
5.0745587 8.0312338 -32.056072
6.687346 8.2466373 -31.956125
8.1115217 8.3478355 -31.858583
9.5062981 8.3265982 -31.742386
-6.4861183 9.5141764 -31.728252
-5.2067266 9.5752068 -31.798294
-3.906997 9.7174644 -31.876341
-2.2023935 9.6451311 -31.961189
-0.61357361 9.7766104 -31.907343
0.7478826 9.5727043 -32.029186
2.1622436 9.5794916 -32.147972
3.6650944 9.594758 -32.089745
5.1043086 9.6283426 -31.958662
6.7578731 9.6736498 -31.924543
8.0831175 9.8011189 -31.769588
9.6546106 10.067757 -31.657953
-6.3363295 11.2451 -31.772469
-5.4452958 11.313727 -31.743769
-3.8716519 11.479887 -31.914207
-2.2015698 11.292456 -31.98971
-0.73239565 11.230246 -32.033157
0.66832793 11.021386 -32.032356
2.1710296 11.084641 -32.137363
3.5184047 11.015297 -32.248203
5.1677446 11.202851 -32.091251
6.7782536 11.193801 -31.900757
8.0004454 11.180466 -32.008961
9.4495306 11.535915 -31.711571
-6.6211023 12.559517 -31.790295
-5.6672997 12.804561 -31.772223
-3.8956008 12.625045 -31.917267
-2.199357 12.757316 -32.106327
-0.66385812 12.694746 -31.995888
0.78796458 12.659067 -32.078575
2.2378809 12.654514 -32.09333
3.6395843 12.638686 -32.021271
5.1265717 12.760762 -32.020435
6.6225104 12.679198 -31.903061
7.9931912 12.559292 -31.843956
9.644701 12.613486 -31.787207
-5.4184742 14.186444 -31.738586
-3.8487294 14.158096 -31.892511
-2.2902269 14.237868 -31.965708
-0.93046021 14.260378 -31.983664
0.73344034 14.392439 -32.117935
2.1869965 14.306739 -32.182423
3.6195831 14.247316 -32.118431
5.1854963 14.16995 -31.989059
6.7282362 14.233487 -31.922766
8.0953321 14.237459 -31.835514
9.5724449 14.230675 -31.679319
10.615269 14.2267 -31.54298
-6.4473815 15.038607 -31.624954
-5.2601967 15.899582 -31.88014
-3.7651947 15.742273 -31.918659
-2.1632073 15.827204 -32.049671
-0.73928028 15.758025 -31.953775
0.68309224 15.710125 -32.137886
2.2632227 15.782506 -32.139973
3.646014 15.801072 -31.976084
5.0850887 15.778019 -31.966911
6.7064719 15.903486 -31.925323
7.9206381 15.608295 -31.88797
9.6238995 15.67599 -31.624176
-6.2342615 16.810051 -31.788757
-5.3099647 17.320356 -31.762072
-3.6742544 17.384914 -32.010967
-2.2001565 17.093904 -31.975086
-0.78119051 17.289705 -31.998165
0.69125253 17.184656 -32.079918
2.1680973 17.406223 -32.097805
3.5518267 17.323885 -32.074501
5.1070681 17.375805 -31.983713
6.7236996 17.283918 -31.898977
8.0699759 17.271738 -31.967669
9.5448704 17.218946 -31.645458
-7.549705 19.143736 -31.547142
-6.4194827 18.711843 -31.802523
-5.5266752 18.770666 -31.883657
-3.7949851 18.623741 -31.929085
-2.4179072 18.818003 -31.966486
-0.86747533 18.695318 -32.02153
0.74016649 18.638849 -32.080185
2.1152699 18.810961 -32.065052
3.5544741 18.926422 -32.041779
5.1877027 18.75296 -32.029274
6.7311101 18.614355 -31.890467
8.0128565 18.840899 -31.915445
9.5716572 18.610023 -31.665741
-6.1774936 20.880974 -31.587212
-5.4605112 20.109459 -31.70455
-3.6567039 20.341152 -31.933079
-2.2097991 20.135637 -31.906748
-0.64445096 20.290588 -32.057518
0.76454198 20.308773 -31.900053
2.0929391 20.290695 -32.183956
3.5267959 20.397881 -32.102383
5.166039 20.283552 -31.946404
6.6775341 20.275162 -31.834602
8.1093884 20.276014 -31.777237
9.6852636 20.238724 -31.607777
-5.1069307 21.647049 -31.882519
-3.8394492 21.829021 -31.824026
-2.5401084 21.779331 -31.987692
-0.78853738 21.795712 -31.957191
0.73529547 21.799343 -31.972448
2.1168854 21.837517 -32.102695
3.5856304 21.75531 -31.969873
5.1665773 21.826454 -32.030048
6.648735 21.931017 -31.933609
8.1517839 21.802395 -31.796335
9.7446861 21.651443 -31.608896
-6.1898313 22.739759 -31.714622
-5.1828399 23.466196 -31.737638
-3.6637151 23.352306 -31.773808
-2.447444 23.286619 -32.048607
-0.65668333 23.355171 -31.953165
0.69325346 23.369284 -31.95454
2.2335162 23.265345 -31.959343
3.5611567 23.319094 -31.981441
5.1249008 23.247498 -32.016144
6.7293134 23.399199 -31.896528
8.044282 23.368416 -31.897171
9.5018578 23.301348 -31.686407
-6.0935497 24.767332 -31.697817
-5.0540709 24.861086 -31.837313
-3.8095386 24.90237 -31.793966
-2.2092967 24.825815 -31.934525
-0.69286895 24.846924 -32.046635
0.57530349 24.752289 -31.922995
2.2623279 24.717672 -31.971439
3.6884344 24.871492 -31.998003
5.1273141 24.84264 -31.954704
6.8233981 24.86866 -31.783306
8.2096624 24.839857 -31.88475
9.5966492 25.075956 -31.62322
-6.5068674 26.521597 -31.621872
-5.0349655 26.633759 -31.682941
-3.8581052 26.4991 -31.785416
-2.2395535 26.219709 -32.11087
-0.6717115 26.413956 -32.014641
0.69671446 26.40222 -31.869799
2.2435393 26.307352 -32.105049
3.554503 26.298191 -32.064465
5.1617975 26.47694 -32.0257
6.7296052 26.407427 -31.921007
8.2589817 26.426258 -31.795752
10.355375 26.281826 -31.522186
-6.8592439 27.797398 -31.508568
-4.7894225 28.033983 -31.591532
-3.7233822 27.650511 -31.733547
-2.1965971 27.838898 -31.887602
-0.84802246 27.707407 -31.80838
0.83203012 27.99123 -31.927763
2.2524467 27.986942 -31.904589
3.6249907 27.82082 -31.995049
5.1427245 27.720486 -31.95241
6.6492181 27.646544 -31.867384
8.2177629 28.043627 -31.752966
9.7872152 27.505268 -31.691805
-5.2426076 29.150488 -31.741215
-3.9608905 29.315245 -31.828968
-2.0795894 29.33684 -31.971001
-0.64276016 29.266613 -31.976917
0.70873672 29.292574 -31.898726
2.1274686 29.488766 -32.006645
3.4791839 29.541092 -31.976551
5.0929112 29.362047 -31.960865
6.6513538 29.430382 -31.867134
8.3897276 29.52383 -31.76251
9.9717665 29.743517 -31.690895
-6.6299601 30.044436 -31.570896
-5.1558242 30.714417 -31.737879
-3.7569432 30.84548 -31.821602
-2.1213136 30.916855 -31.956854
-0.75743896 30.960728 -31.877266
0.67029923 30.837475 -32.082623
2.1132829 30.882816 -31.908123
3.5635412 31.095869 -31.957312
5.0541201 31.073786 -31.955641
6.5518098 30.790771 -31.954245
8.221734 30.970236 -31.889032
9.7068634 31.432236 -31.663666
-6.5231638 32.179813 -31.612722
-5.0517573 32.173237 -31.584455
-3.9080534 32.381088 -31.782904
-2.2156694 32.502895 -31.832905
-0.51340789 32.421871 -31.904743
0.59914052 32.456013 -31.988928
2.0898616 32.3955 -32.022251
3.5061853 32.534691 -31.953018
5.3261628 32.608932 -31.883339
6.6489043 32.261593 -31.760864
8.0856657 32.346359 -31.789396
10.142716 31.887537 -31.725634
-6.4845686 33.604637 -31.549236
-5.1737075 33.777714 -31.6038
-3.7412987 34.090115 -31.830267
-2.1080909 33.800003 -31.879196
-0.73332709 33.956867 -31.963526
0.68866998 33.892399 -31.963806
1.9660431 33.759586 -32.015747
3.549825 33.920601 -31.930843
5.1068802 34.094955 -32.073673
6.6954322 34.023651 -31.869846
8.28092 33.711258 -31.672607
9.8535404 33.678307 -31.676888
10.549242 33.152729 -31.5145
-6.2090025 35.410828 -31.616686
-5.3908744 35.60157 -31.629318
-3.6013963 35.433186 -31.813141
-2.132092 35.190578 -31.868866
-0.56401587 35.34412 -31.945208
0.73038107 35.227894 -31.795624
2.0410209 35.392063 -32.0494
3.659498 35.25351 -31.926884
5.2326646 35.417126 -32.032742
6.490201 35.246624 -31.796722
8.2850504 35.155598 -31.757788
10.17043 35.877464 -31.511581
-6.2466636 37.36404 -31.577713
-5.0391674 37.346981 -31.667271
-3.7463753 36.752945 -31.801056
-2.1312068 36.693275 -31.933559
-0.82816762 36.75214 -32.037647
0.75159699 36.722862 -31.899609
2.2446404 36.631458 -32.114971
3.5083053 36.503914 -31.97307
5.1629658 36.540825 -31.845255
6.4734726 36.554653 -31.736841
8.2854681 36.862507 -31.68536
10.702646 36.528114 -31.559616
-5.2144837 38.034824 -31.568308
-3.6859961 38.045753 -31.806444
-2.132936 38.26524 -31.922455
-0.77824074 38.266968 -31.904264
0.57478225 38.240204 -32.001957
2.0326648 38.280338 -32.02335
3.4753857 38.076046 -31.929585
5.0223074 37.932106 -31.918718
6.368751 38.019089 -31.799316
8.1959295 37.87923 -31.738235
-5.4623394 39.640553 -31.681015
-3.637018 39.972843 -31.716782
-2.0565836 39.565235 -31.85417
-0.58978361 39.656883 -31.896454
0.70298535 39.639801 -31.978466
2.0903063 39.651138 -32.021893
3.5629458 39.681042 -31.953075
5.0467701 39.379238 -31.807716
6.6525345 39.545609 -31.903521
8.405736 39.717915 -31.699148
10.321718 40.149258 -31.521801
-5.4906487 41.442181 -31.612541
-4.0440035 41.280403 -31.613445
-2.1347246 40.991714 -31.853928
-0.82800061 41.247437 -31.742727
0.83443981 41.205284 -31.861345
1.9595332 40.950882 -31.826603
3.6312551 41.054123 -31.902554
5.058435 41.266243 -31.848944
6.6884236 41.183769 -31.81469
8.3557692 41.340237 -31.791998
-5.9398379 43.09267 -31.661011
-3.5648465 42.646667 -31.76366
-2.0793648 42.833977 -31.92156
-1.1463566 42.76601 -31.988428
0.73941267 42.591373 -32.039356
2.0490677 42.579792 -32.014442
3.6666198 42.566616 -31.892227
5.3722634 42.677612 -31.860088
6.6381216 42.860889 -31.92592
8.4342413 42.521034 -31.709293
10.364974 42.865284 -31.521334
-5.1946406 43.822815 -31.69887
-3.5631535 44.42741 -31.721912
-2.0155411 44.02795 -31.779028
-0.63329786 44.061832 -31.77965
0.75240153 43.94331 -31.870121
1.8421793 44.097923 -32.176907
3.593051 44.061073 -31.935352
4.9430585 43.871105 -31.92124
6.6677866 44.017784 -31.874786
8.440464 44.050194 -31.775658
9.0023355 44.321747 -31.919577
-5.4220362 45.786957 -31.645592
-3.5397732 45.49054 -31.728415
-2.1536863 45.789497 -31.830465
-1.1498722 45.481022 -31.89477
0.7839691 45.671661 -31.90613
2.1797681 45.55172 -32.024029
3.6752217 45.836983 -31.821663
4.9558926 45.687237 -31.848537
6.7352481 45.315399 -31.878344
8.6596537 45.705482 -31.743105
-5.2475729 46.825645 -31.77853
-3.6210811 46.81303 -31.781183
-2.129981 46.964584 -31.694206
-0.85448003 47.201752 -31.873606
0.78440309 47.001476 -31.864187
2.2278898 47.141693 -31.980827
3.6790321 47.275551 -31.892025
5.1306877 47.195702 -31.917807
6.5875292 47.191441 -31.932793
8.409008 47.004707 -31.692656
9.296586 46.824677 -31.817665
-5.2067695 48.744259 -31.618826
-3.5492511 48.341373 -31.719803
-2.1360497 48.507191 -31.790051
-0.84780484 48.720314 -31.853048
0.65026653 48.619873 -31.876183
2.1683748 48.550537 -31.932936
3.7320294 48.420349 -31.941833
5.2712226 48.71999 -31.927565
6.6498337 48.561836 -31.804058
8.3814201 48.474754 -31.694778
9.3155985 48.857925 -31.687378
-3.4706705 49.840172 -31.852539
-1.9140171 49.875458 -31.818172
-1.1014198 50.221497 -31.821091
0.78937721 50.03138 -31.883139
2.3521838 50.15477 -31.958296
3.6113644 50.096203 -32.019432
5.1558194 50.223225 -31.942518
6.6354709 50.162594 -31.857855
8.2244692 50.021145 -31.636465
9.0851364 50.574226 -31.683857
-5.2191353 51.064751 -31.7309
-3.4666951 51.556664 -31.789824
-2.4342446 51.620739 -31.842911
-0.81195939 51.721107 -31.840082
0.48016909 51.657372 -31.939241
2.3134997 51.706566 -31.970173
3.6839862 51.496536 -31.817158
5.1904016 51.826321 -31.8818
6.590848 51.841152 -31.806604
8.2256117 51.603146 -31.606379
9.4825716 52.122334 -31.652386
-4.9695802 53.348412 -31.508577
-3.7615433 53.192062 -31.626852
-2.1976616 53.282829 -31.653473
-0.91139811 53.017937 -32.060932
0.78370577 53.16259 -31.889593
2.303606 53.167419 -32.011898
3.7639074 53.056644 -31.824078
5.1376395 53.226963 -31.909452
6.7568741 53.147213 -31.862814
8.339488 53.398361 -31.638529
9.1239681 53.967072 -31.634571
-5.4631248 54.982597 -31.696037
-3.8159344 54.900009 -31.801094
-2.3290391 54.859058 -31.891968
-0.72533417 54.382557 -31.836084
0.69136971 54.542583 -31.711311
2.4607062 54.749317 -32.009701
3.5965924 54.710747 -31.829023
4.9014387 54.920948 -31.81702
6.5634546 54.76519 -31.803909
7.998476 55.215809 -31.848614
10.170927 54.530899 -31.54454
-5.1416631 55.781807 -31.8804
-3.5068898 56.388817 -31.937088
-2.3117268 56.317169 -31.862591
-0.94111896 56.243454 -31.80859
0.62746441 56.241177 -32.010128
2.393038 56.363548 -31.878504
3.6533439 56.351814 -31.816921
5.0217514 56.348488 -31.868765
6.6917953 56.321064 -31.808321
8.3588314 56.808933 -31.631962
9.1594372 55.617199 -31.599255
-4.7882547 57.897499 -31.681313
-3.5332646 57.990135 -31.774033
-2.1457882 57.912025 -31.775713
-0.69890386 57.684185 -31.888557
0.74089187 58.102417 -31.871191
2.2925031 57.824764 -31.884342
3.677469 57.819992 -31.938896
5.1351442 57.57127 -31.922541
6.8833494 57.839264 -31.773243
8.164361 58.140884 -31.769581
9.1952677 57.272659 -31.563147
-6.0937696 59.316338 -31.667839
-5.1153755 59.132576 -31.919044
-3.800324 59.23238 -31.985901
-2.287432 59.279839 -31.826677
-0.8693741 59.261799 -32.011116
0.68759477 59.441216 -32.019169
2.2895703 59.395649 -31.940451
3.6994901 59.381615 -31.866108
5.1665454 59.055317 -31.93644
6.8178005 59.37064 -31.72426
9.1910324 58.908516 -31.550983
-4.8552685 60.776337 -31.628412
-3.780524 60.653675 -31.691128
-2.2142982 60.555748 -31.830906
-1.0100335 60.906574 -31.794535
0.68111485 60.824768 -31.87499
2.1724758 60.7771 -31.769846
3.693918 60.825417 -31.72917
5.1928549 60.68243 -31.833778
6.6646585 60.906143 -31.66835
8.1907196 60.477734 -31.701136
-4.5486321 61.616032 -31.644447
-3.2264543 62.318153 -31.527819
-2.3526032 62.653191 -31.794588
-0.9163419 62.576031 -31.749149
0.76126087 62.27203 -31.939802
2.1086915 62.205261 -31.724943
3.7474174 62.320438 -31.941677
5.5199366 62.424915 -31.791494
6.6853952 61.648441 -31.883377
8.0543299 61.930542 -31.610819
-4.3253431 63.793289 -31.563328
-2.1635542 64.051537 -31.717058
-0.80437839 63.558552 -31.711365
0.70640135 63.927574 -31.854944
2.2034171 63.500584 -31.847799
3.8140914 63.841339 -31.914118
5.6137223 63.858265 -31.765564
6.5487618 63.772636 -31.730724
7.8988585 63.615284 -31.734381
9.2930794 63.921303 -31.630268
-3.542923 65.613899 -31.685301
-1.9014034 65.503899 -31.904449
-0.80878341 65.08223 -31.748632
0.7944321 65.267349 -31.855036
2.1840868 65.207634 -31.781418
3.9409063 65.347595 -31.871483
5.4238057 65.009331 -31.808937
6.5584106 64.879745 -31.658922
8.1525507 65.312157 -31.820051
9.2999105 65.553192 -31.58263
-5.0308514 66.432701 -31.565407
-3.7984972 66.544136 -31.61248
-2.0463521 66.807159 -31.906683
-0.96493465 66.747986 -31.691465
0.89305657 66.751595 -31.898685
2.1764667 66.810265 -31.839905
3.9130225 66.428658 -31.850115
5.2787781 66.734627 -31.852617
6.2828836 66.512375 -31.767445
7.9570093 66.8265 -31.703644
9.3206491 67.222214 -31.587482
-4.0857611 68.570221 -31.584602
-1.9692998 68.17601 -31.70092
-0.67469871 68.259857 -31.848537
0.94377714 68.305115 -31.8769
2.283566 68.531296 -31.788977
3.9236212 68.094574 -31.913967
5.5260658 68.398453 -31.811737
6.3475738 67.892334 -31.63962
8.2739868 68.473305 -31.689468
-4.5936751 69.955299 -31.570978
-3.8547831 70.435654 -31.614035
-2.1677613 69.51358 -31.788187
-1.157177 69.582428 -31.648254
0.94801301 69.783012 -31.800764
2.0221591 69.799957 -31.952751
3.874455 69.571396 -31.762354
5.5085783 69.880142 -31.783442
6.4079618 69.508064 -31.708092
7.584219 69.694138 -31.693579
-4.1061893 71.484718 -31.638411
-2.5027311 70.877731 -31.579304
-0.73351526 71.284691 -31.833563
0.83430779 71.407982 -31.713827
2.0723281 71.056168 -31.891457
3.9134197 71.134361 -31.84273
5.3513899 71.069374 -31.868938
6.505929 71.378639 -31.776054
8.7835293 70.764297 -31.57505
9.2219381 71.489952 -31.684736
-3.9693918 73.053726 -31.624123
-2.2256382 72.587296 -31.715065
-0.91675186 72.871315 -31.791309
0.6680243 73.044579 -31.695677
2.0295689 72.746376 -31.887047
4.0409889 72.901772 -31.883224
5.4220753 72.926987 -31.795507
6.5425625 72.491531 -31.85166
8.2816887 72.719086 -31.591391
-3.7474117 74.598068 -31.61256
-0.77189344 74.491623 -31.72677
0.54752016 74.281853 -31.812355
2.1683574 74.236626 -31.909628
3.8127267 74.166771 -31.750696
5.534781 74.222504 -31.727463
6.3138456 74.146568 -31.697809
7.6762352 74.30043 -31.631218
9.4876242 74.345352 -31.633989
-2.1248937 75.42807 -31.740763
-0.75911105 76.285446 -31.76128
0.65289664 75.711601 -31.796146
2.0985706 75.615166 -31.804068
3.7241473 75.608055 -31.652321
5.3770471 75.810753 -31.827847
6.6133537 75.491364 -31.821218
7.7273078 75.465935 -31.568443
-3.6436739 77.150055 -31.601103
-0.54926515 77.490692 -31.846024
0.5816319 77.198288 -31.68223
2.2501581 77.249252 -31.825512
3.9527559 77.103745 -31.713177
5.5385866 76.954391 -31.689293
6.7241936 77.170593 -31.687279
7.7576756 77.171577 -31.541826
9.7867098 77.296837 -31.549623
-1.7720243 78.049309 -31.859095
-0.76992846 78.370445 -31.669184
0.41354129 78.615097 -31.759712
2.1467736 78.41964 -31.716505
4.1451106 78.375626 -31.813841
5.2574143 78.554306 -31.860027
6.5589509 78.537262 -31.665312
7.7871408 78.881203 -31.517832
-3.3764544 80.140038 -31.588598
-1.8124466 80.825974 -31.693884
-0.61793888 80.194557 -31.689705
0.69716734 79.734238 -31.712511
2.3757336 80.340263 -31.804428
3.9610786 80.055084 -31.681919
5.6164269 80.252495 -31.735168
6.6068635 80.195374 -31.679876
7.7852626 80.8946 -31.599096
-2.9517503 81.989517 -31.57844
-0.79999238 81.185661 -31.664957
0.67060953 81.624306 -31.791269
2.4522152 81.427574 -31.638329
4.0232944 81.752335 -31.756201
5.0988045 81.78669 -31.801109
6.2260547 82.065323 -31.636557
7.6094131 81.807709 -31.71269
-3.5610015 82.736595 -31.52965
-0.7639966 83.444496 -31.754137
0.60772115 83.039154 -31.704985
2.713084 83.305283 -31.836433
4.2514639 83.538445 -31.641619
5.1735878 83.835121 -31.869884
6.2620354 83.499245 -31.6698
-2.8303161 84.532303 -31.625023
-0.65486324 84.655685 -31.542364
0.6694864 84.834518 -31.783882
2.5492969 84.873077 -31.66864
4.1972318 85.015282 -31.666809
5.3805189 85.228767 -31.984489
6.2739449 85.388023 -31.579176
8.0923548 84.193268 -31.666824
-3.4387772 85.624748 -31.526876
-2.1167431 86.464958 -31.619432
-1.3063219 86.75827 -31.789988
0.57239336 86.237221 -31.652964
2.5323763 86.532211 -31.753922
3.8322124 86.363068 -31.83367
5.8771119 86.719315 -31.698233
6.6233058 85.602104 -31.717999
-0.22038424 87.308159 -31.50124
0.87767476 88.032387 -31.647345
2.5856788 88.173912 -31.623421
3.8632369 88.134338 -31.774462
5.2184124 88.408836 -31.739204
6.5827541 87.720581 -31.596064
8.1679335 87.679276 -31.598415
-3.3086612 88.571144 -31.516354
-2.3939629 88.947861 -31.620987
-1.1086559 89.831657 -31.718948
0.76504683 88.856453 -31.765509
2.4802594 89.481964 -31.573608
4.0491915 89.339546 -31.754328
5.7817397 89.758667 -31.68519
6.1843185 88.948502 -31.524065
-1.4379694 91.217285 -31.584515
0.86870277 91.106476 -31.836731
2.6339998 90.633514 -31.553772
4.172533 90.799843 -31.68791
5.2419701 90.682457 -31.76963
8.4161339 90.467758 -31.571278
-3.1740286 91.570351 -31.502544
-2.2116466 91.962067 -31.70891
-1.0651126 92.638512 -31.845814
1.0768019 91.708405 -31.542843
2.7760296 91.929848 -31.556875
3.838789 92.278908 -31.722452
5.9698319 91.585213 -31.761845
6.2078214 92.388046 -31.562174
8.4628687 92.342033 -31.737606
-3.2205763 94.233932 -31.726095
-2.2826047 93.880447 -31.728235
-0.26403987 93.50338 -31.568586
0.93105745 93.754593 -31.740742
2.1586988 93.546112 -31.6861
4.1200194 93.431335 -31.684156
5.8014908 93.908264 -31.876684
6.8264675 93.674576 -31.617382
8.2946749 93.35463 -31.652561
-0.92418313 95.684433 -31.852362
0.84413642 95.399193 -31.736057
2.5981083 95.535355 -31.656597
4.1773238 95.413765 -31.773813
6.2386308 95.170593 -31.678322
-3.010911 97.477463 -31.620203
-1.8297408 96.480682 -31.753441
-1.1904528 96.546913 -31.663706
1.0249887 97.013 -31.701385
2.3652544 97.13253 -31.782911
4.0689116 96.693283 -31.756138
4.9235725 97.228226 -31.520731
6.1735487 97.40889 -32.004223
8.8739004 96.680237 -31.565613
-1.9681196 98.850342 -31.765898
-0.70242858 98.534569 -31.716587
0.87015301 98.513428 -31.70697
2.5742621 98.809769 -31.727959
4.025136 98.351646 -31.857265
4.8984809 98.639 -31.548719
6.3030267 98.129639 -31.688883
8.0784674 98.56189 -31.565651
-4.5868816 100.24614 -31.604303
-3.0399625 100.25605 -31.825735
-1.9775569 100.23073 -31.770737
-0.57423472 99.786919 -31.637154
1.0769675 99.894882 -31.862711
2.2088859 99.719818 -31.758917
3.7884459 99.564392 -31.698238
4.694644 100.01424 -31.61972
6.2331262 99.37838 -31.708138
8.1897621 99.934418 -31.650208
9.092165 99.833763 -31.581394
-2.3236768 101.36029 -31.730005
-1.0912354 101.52918 -31.925976
0.59302819 101.20305 -31.739243
2.1105199 101.27045 -31.845028
3.8763587 101.31189 -31.876484
4.848496 101.44868 -31.604458
6.3859854 100.83281 -31.798428
8.2004299 101.30489 -31.533171
-2.8907161 103.46267 -31.803419
-1.034095 103.17027 -31.720539
0.40789193 102.7935 -31.76206
2.2601302 102.99587 -31.815611
4.0075288 102.66557 -31.990326
4.6926036 102.45327 -31.666025
6.5215592 102.9537 -31.755529
8.0837622 103.16991 -31.512583
9.3371201 103.08421 -31.57122
-4.1047664 104.58217 -31.614929
-1.9189861 103.61917 -31.983007
-1.1051644 104.39469 -31.989311
0.50945526 104.26453 -31.694853
2.1923606 104.29536 -31.785572
3.9841862 104.23743 -31.943375
4.7025204 104.19427 -31.69939
6.381248 104.18246 -31.837286
-3.1577485 105.16981 -31.512638
-1.6774917 106.28407 -31.951002
-1.0089633 105.61166 -31.693678
0.72039062 105.74554 -31.82398
2.2047839 105.56245 -31.934652
3.8143628 105.6084 -31.833914
4.6314535 105.89146 -31.850395
6.2780552 105.92451 -31.756426
-4.2331581 107.14005 -31.537056
-2.7547858 106.68884 -31.801176
-0.72685415 107.30779 -31.828852
0.51955301 107.13982 -31.706038
2.3468101 107.14365 -31.739594
3.7388666 106.99464 -31.730038
4.6541224 107.38611 -31.746754
6.6458511 107.10382 -31.753311
8.3449049 107.1784 -31.572933
-0.57981569 108.77108 -31.710562
0.60788685 108.70194 -31.613089
2.0112517 108.24812 -31.694733
3.8153281 108.53126 -31.611147
4.5237856 108.70537 -31.91909
6.3412399 108.12917 -31.663662
11.937552 -40.525673 -30.259809
-10.991711 -39.226746 -30.28611
-9.5654783 -39.46962 -30.584106
-8.3441887 -39.565228 -30.557831
-6.7805786 -39.581234 -30.647457
-5.2646003 -39.630013 -30.843632
-3.7695858 -39.675858 -30.838091
-2.2646582 -39.563774 -30.961405
-0.7049042 -39.820225 -30.868572
0.64201099 -39.583736 -30.675131
2.2795489 -39.720329 -30.971052
3.9420481 -39.851646 -30.907639
5.1031866 -39.565063 -30.780289
6.7434716 -39.532581 -30.872101
8.2526712 -39.652065 -30.760307
9.7103148 -39.474701 -30.652514
11.272698 -39.484283 -30.798756
12.810288 -39.645241 -30.475008
14.355988 -39.264118 -30.415863
15.556095 -39.072021 -30.182972
-12.334205 -38.13036 -30.318775
-10.995747 -38.115311 -30.704933
-9.7623377 -38.280849 -30.795879
-8.3029442 -38.39204 -30.772509
-6.7883658 -38.527458 -30.703547
-5.216043 -38.572166 -30.817766
-3.8456721 -38.587502 -30.86141
-2.2974541 -38.579552 -30.70472
-0.67922187 -38.636299 -30.766014
0.87357551 -38.550243 -30.881296
2.4362893 -38.672165 -30.77906
3.8351312 -38.512115 -30.619738
5.2265835 -38.673466 -30.739168
6.8081937 -38.463383 -30.826546
8.1118155 -38.42886 -30.844574
9.8037071 -38.392857 -30.784739
11.260671 -38.29261 -30.81151
12.845735 -38.302544 -30.810446
14.134749 -38.298279 -30.601194
15.619062 -37.889557 -30.204838
-12.543778 -36.895607 -30.335688
-11.177594 -36.767418 -30.499779
-9.8086252 -36.813187 -30.851698
-8.2552137 -36.683025 -30.888126
-6.9591327 -36.445236 -31.136452
-5.3683081 -36.460289 -31.317841
-4.0996618 -36.447704 -31.353523
-2.3210747 -36.636887 -30.634628
-0.78594363 -36.858917 -30.152721
0.55074173 -37.246769 -30.192482
1.8385639 -37.099468 -30.007347
3.0719609 -37.344948 -30.033455
7.4099145 -36.33083 -31.127762
8.4453449 -36.70594 -30.927277
9.8780956 -36.734669 -30.979536
11.251273 -36.812149 -30.958395
12.631338 -36.892227 -30.745184
14.181795 -36.95594 -30.585768
15.54843 -36.741566 -30.236641
-12.206202 -35.875797 -30.189089
-11.388977 -35.272949 -30.280222
-9.8118353 -35.345425 -30.559053
-8.1974211 -35.320358 -30.816761
-6.7606134 -35.264908 -30.812643
-5.3792481 -35.093414 -30.779428
-3.6801491 -34.994267 -30.818159
-2.166784 -35.192593 -30.899454
-0.8619622 -35.054249 -31.062061
0.24479921 -35.22813 -31.204149
5.0674639 -35.819317 -31.413387
7.2592349 -34.702209 -30.949842
8.2721901 -35.296303 -30.890816
9.7419176 -35.045723 -30.775686
11.167005 -35.220806 -30.81481
12.737958 -35.282753 -30.562799
13.972061 -35.278755 -30.284599
-12.024013 -34.353268 -30.173235
-11.201334 -33.631027 -30.292114
-9.695797 -33.780544 -30.518559
-8.316926 -33.769402 -30.598259
-6.870131 -33.616955 -30.834869
-5.273057 -33.757137 -31.139893
-3.6535168 -33.742203 -31.084641
-2.2117639 -33.778717 -30.824121
-0.82156926 -34.102543 -31.193874
0.70832169 -33.156693 -31.218319
6.8466058 -33.679386 -31.12266
8.4144926 -33.782948 -30.99292
9.9169016 -33.625759 -30.803513
11.175231 -33.748337 -30.827429
12.7907 -33.767975 -30.470701
13.993126 -33.696934 -30.375101
15.019213 -33.39732 -30.062445
-11.202497 -32.171715 -30.339352
-9.6809235 -32.364128 -30.563751
-8.2132206 -32.239185 -30.715977
-6.7272253 -32.211468 -30.848671
-5.3837204 -32.094769 -31.008179
-3.6583726 -32.382637 -31.088106
-2.2647061 -32.324257 -31.130239
-1.0331262 -32.504753 -30.879574
0.25030392 -32.254761 -30.980846
1.9202981 -32.237289 -31.352879
7.124681 -32.336437 -31.226994
8.3032207 -32.22728 -30.775108
9.775033 -32.147823 -30.849848
11.325778 -32.267921 -30.888205
12.814861 -32.173775 -30.533785
14.082253 -32.238209 -30.347298
15.034615 -32.006733 -30.101254
-11.283733 -30.617899 -30.304159
-9.7812672 -30.774387 -30.470316
-8.2189541 -30.664284 -30.79562
-6.7225804 -30.640051 -30.877462
-5.3349767 -30.738415 -30.904501
-3.7327251 -30.760563 -30.91581
-2.06709 -30.866955 -30.881634
-0.85387814 -30.994654 -31.03587
0.82207888 -30.801844 -31.23321
1.9687217 -30.7216 -31.281036
5.4268923 -30.670403 -31.085718
6.7927942 -30.709103 -30.992954
8.2994003 -30.492119 -30.911715
9.7245932 -30.713835 -30.787962
11.264929 -30.74114 -30.83226
12.64507 -30.708668 -30.55517
13.944269 -30.658503 -30.430933
15.051792 -30.635735 -30.036655
-12.373007 -29.455442 -30.015413
-11.20578 -29.307486 -30.315195
-9.7666016 -29.243685 -30.494871
-8.2441549 -29.191761 -30.847574
-6.8158975 -29.212637 -30.804073
-5.2693243 -29.256771 -30.771414
-3.6482847 -29.261543 -31.085592
-2.1923048 -29.377142 -31.140175
-1.061483 -29.494478 -30.844429
0.54631984 -29.00725 -30.980577
1.8676271 -29.320175 -31.348843
4.4944444 -28.860563 -31.275499
4.9480114 -29.521441 -31.264294
6.9562602 -29.263519 -31.073298
8.40732 -29.085419 -30.994465
9.7198982 -29.287008 -30.776747
11.280812 -29.298746 -30.828518
12.688942 -29.211185 -30.618444
13.958661 -29.152609 -30.325983
15.043452 -29.232149 -30.093142
-12.310348 -27.966856 -30.104889
-11.109987 -27.720768 -30.36829
-9.6924257 -27.678085 -30.601578
-8.2399101 -27.813124 -30.716215
-6.7725983 -27.73238 -30.793186
-5.2063298 -27.832577 -30.980753
-3.771035 -27.676752 -30.949551
-2.2711999 -27.95536 -31.133562
-0.65017742 -27.805342 -31.071245
0.62466216 -27.775421 -31.164598
1.9234573 -27.984571 -31.122345
3.6963496 -28.08079 -31.285177
5.2832532 -27.661089 -31.028168
6.8857713 -27.707638 -30.948069
8.3553228 -27.738146 -30.908747
9.7871466 -27.750502 -30.860235
11.38779 -27.852842 -30.82769
12.603244 -27.613338 -30.674412
13.93308 -27.720707 -30.355984
15.152612 -28.155506 -30.087761
-11.398285 -26.350464 -30.157009
-9.7282877 -26.172758 -30.510927
-8.2127867 -26.210127 -30.775553
-6.8043337 -26.24497 -30.811169
-5.1664119 -26.355135 -30.923424
-3.8119905 -26.319666 -31.078758
-2.1087883 -25.943874 -30.920538
-0.72778565 -26.28866 -30.831652
0.6864711 -26.291599 -31.151834
2.0960062 -26.21608 -31.219316
3.7461963 -26.276537 -31.036415
5.3689528 -25.972157 -31.0874
6.8072376 -26.266796 -30.880571
8.2965422 -26.284998 -30.849136
9.674655 -26.404476 -30.88529
11.329846 -26.333122 -30.865141
12.633301 -26.168678 -30.554045
13.982693 -26.395618 -30.341125
15.077398 -26.428446 -30.182676
-11.273653 -24.669851 -30.253399
-9.7466364 -24.851801 -30.504309
-8.2564793 -24.742027 -30.653477
-6.8037491 -24.749115 -30.816477
-5.2511773 -24.943457 -30.900229
-3.640331 -24.994024 -31.002611
-2.1750603 -24.618999 -31.06365
-0.72972536 -24.892088 -31.01655
0.86237621 -24.819233 -30.974028
2.0664935 -24.901722 -31.010553
3.8145428 -24.775986 -31.012465
5.5116935 -24.796885 -31.053709
6.8383961 -24.906675 -30.91938
8.3990316 -24.854355 -30.903677
9.7926016 -24.904339 -30.741877
11.230166 -24.835287 -30.811193
12.73298 -24.838217 -30.585876
14.035975 -24.891672 -30.284306
15.036612 -24.823526 -30.157482
-11.242108 -23.32579 -30.377335
-9.7820549 -23.172663 -30.509583
-8.3213081 -23.296091 -30.676098
-6.7726836 -23.33534 -30.776882
-5.1622124 -23.36064 -30.822317
-3.8125541 -23.454241 -31.055691
-2.1613085 -23.143011 -30.955597
-0.78893965 -23.115198 -31.040977
0.56912416 -23.288404 -31.101112
2.0064001 -23.189617 -30.94648
3.5311038 -23.392723 -31.040392
5.3475609 -23.153656 -30.896988
6.8093143 -23.292976 -30.772099
8.3607206 -23.35817 -30.843309
9.7677326 -23.476124 -30.82312
11.247022 -23.409138 -30.776306
12.769139 -23.325495 -30.564947
13.8981 -23.443222 -30.319881
15.069765 -23.406885 -30.048313
-11.231414 -21.641644 -30.259161
-9.7982988 -21.718792 -30.533314
-8.2374382 -21.71726 -30.735352
-6.7234735 -21.713249 -30.793417
-5.2207184 -21.668161 -30.853146
-3.7956307 -21.799934 -30.996742
-2.3008056 -21.558981 -31.009102
-0.79770893 -21.698725 -31.121807
0.95728809 -21.92631 -31.039164
2.4408631 -21.69212 -30.926304
3.6488614 -21.765949 -30.98036
5.257688 -21.737001 -30.965816
6.6937242 -21.894781 -31.145496
8.2756329 -21.7757 -30.813805
9.8010998 -21.739943 -30.778435
11.253228 -21.816528 -30.740124
12.712887 -21.962521 -30.588215
13.869853 -21.641748 -30.334066
15.129885 -21.70064 -30.063072
-11.262925 -20.06723 -30.15806
-9.7398605 -20.315815 -30.544714
-8.25105 -20.31657 -30.680187
-6.8902459 -20.316633 -30.785194
-5.2367101 -20.146847 -30.944881
-3.6260407 -20.382814 -30.939684
-2.3540883 -20.347908 -30.982763
-0.76589519 -20.393871 -30.948242
0.90501916 -20.334469 -31.013912
1.9922612 -20.571199 -31.083082
3.8947001 -20.186842 -30.931091
5.4763937 -20.504044 -30.989653
6.8395944 -20.383169 -30.914423
8.4161062 -20.370533 -30.778084
9.7087469 -20.199289 -30.90979
11.262889 -20.268785 -30.770266
12.695155 -20.37533 -30.610937
14.000078 -20.376667 -30.336288
15.163852 -20.233246 -30.048605
-11.147252 -18.816504 -30.222458
-9.7031097 -18.904181 -30.559076
-8.2647076 -18.771631 -30.549627
-6.8551826 -18.688602 -30.785122
-5.2750659 -18.624649 -30.819866
-3.7283847 -18.705631 -30.941223
-2.2205827 -18.704451 -30.920715
-0.76288211 -18.607674 -31.04357
0.64532477 -18.797295 -30.939661
2.2279279 -18.953306 -31.038568
3.6835268 -18.951984 -31.042709
5.2273417 -18.674185 -30.913774
6.7480597 -18.838078 -31.016745
8.3651133 -18.7665 -30.89468
9.781745 -18.653015 -30.815708
11.301345 -18.712095 -30.719032
12.646997 -18.812059 -30.652519
13.977353 -18.913692 -30.342371
15.164168 -18.752501 -30.116781
-11.278945 -17.260235 -30.17635
-9.7757196 -17.34906 -30.521217
-8.3884077 -17.252714 -30.591709
-6.8331409 -17.188688 -30.810579
-5.2530069 -17.162066 -30.706837
-3.797194 -17.142824 -31.023573
-2.2391231 -17.075953 -31.072248
-0.86367732 -17.116657 -31.098866
0.71687835 -17.250069 -30.950823
2.1865377 -17.363462 -30.959642
3.7138412 -17.430075 -30.906734
5.43787 -17.355219 -30.931017
6.5525417 -17.189131 -31.035341
8.3107433 -17.060234 -30.871557
9.8145561 -17.1164 -30.875835
11.097662 -17.324791 -30.841255
12.751571 -17.205824 -30.668007
14.004672 -17.250492 -30.326324
15.112133 -17.277983 -30.116484
-12.737526 -15.944764 -30.011971
-11.301992 -15.613079 -30.293253
-9.760643 -15.721662 -30.569265
-8.3594112 -15.645108 -30.603405
-6.8521519 -15.701244 -30.852732
-5.3542433 -15.726423 -30.739849
-3.8299506 -15.759702 -31.041433
-2.3026152 -15.803416 -30.897734
-0.74244386 -15.929782 -30.895569
0.78151703 -15.660069 -30.905582
2.3427386 -15.445272 -31.036804
3.5585072 -15.797728 -30.932837
5.2355046 -15.767751 -30.831823
6.9213529 -15.825583 -31.042595
8.3835306 -15.76317 -30.80761
9.7828035 -15.625077 -30.801311
11.115068 -15.681485 -30.743258
12.660012 -15.716729 -30.671473
13.983103 -15.601768 -30.320103
15.133806 -15.468651 -30.133984
-11.105132 -14.369029 -30.272551
-9.7346201 -14.131301 -30.595625
-8.3363056 -14.312388 -30.676046
-6.8083601 -14.216944 -30.856155
-5.2491107 -14.154268 -30.753363
-3.7595298 -14.156626 -30.976233
-2.342061 -14.362798 -30.957638
-0.6126737 -14.336478 -30.886
0.64647806 -14.433559 -31.062466
2.2406502 -14.298429 -31.030674
3.566093 -14.263966 -30.99242
5.417367 -14.191022 -30.86455
6.8552017 -14.248682 -31.175022
8.3675051 -14.268509 -30.866173
9.8598404 -14.306669 -30.704273
11.193451 -14.087674 -30.743782
12.781487 -14.215633 -30.514547
13.798424 -14.194426 -30.393412
15.114006 -14.103916 -30.120527
-10.919939 -12.979434 -30.327492
-9.5098696 -12.664119 -30.49736
-8.4646187 -12.690422 -30.732008
-6.8964443 -12.704038 -30.861824
-5.3948226 -12.817969 -30.815363
-3.8839619 -12.748519 -31.100113
-2.3599041 -12.851681 -30.931021
-0.66347569 -13.022673 -30.903099
0.43418252 -12.840908 -30.965576
2.123316 -12.948807 -30.970346
3.5350795 -12.895007 -30.932428
5.2938223 -12.727049 -30.893158
6.8158712 -12.857478 -30.907606
8.2634878 -12.721759 -30.838619
9.7507086 -12.950105 -30.905344
11.243853 -12.793514 -30.830494
12.69088 -12.686199 -30.587084
13.818491 -12.673217 -30.25886
15.173325 -12.554311 -30.13163
-12.499067 -11.790361 -30.020493
-11.056064 -11.253035 -30.25452
-9.6849871 -11.264391 -30.37476
-8.2374039 -11.153648 -30.714611
-6.8473721 -11.222178 -30.728033
-5.2664003 -11.236869 -30.930183
-3.6891942 -11.227716 -31.060328
-2.2835023 -11.312472 -30.928694
-0.84024197 -11.207879 -31.007156
0.4407841 -11.268403 -30.931883
2.1323738 -11.242545 -30.989763
3.4799054 -11.184525 -31.095066
5.3439679 -11.247022 -30.928257
6.9423203 -11.232034 -31.073343
8.2733431 -11.297973 -30.756254
9.7995262 -11.516315 -30.834957
11.244387 -11.245706 -30.775837
12.690071 -11.04742 -30.560766
13.88787 -11.293503 -30.313406
15.211433 -11.257211 -30.091974
-12.459164 -10.205702 -30.095734
-11.08813 -9.7551327 -30.390644
-9.8177652 -9.6422014 -30.461203
-8.2381716 -9.6270084 -30.662937
-6.8133683 -9.7716398 -30.719187
-5.3349891 -9.7048016 -30.671776
-3.8530552 -9.7911863 -30.881824
-2.5433624 -9.8782434 -30.859009
-1.0116477 -9.6802874 -30.897106
0.33516598 -9.9012403 -30.980137
1.8988107 -9.9583845 -31.112875
3.5374179 -9.8462811 -30.995108
5.1432652 -9.8264647 -30.756817
6.7417264 -9.6788244 -30.933752
8.2197046 -9.8390217 -30.779827
9.7343521 -9.8311052 -30.832668
11.216979 -9.6749105 -30.779604
12.734509 -9.6138039 -30.596901
13.910681 -9.756814 -30.330801
15.215196 -9.6279259 -30.084431
-12.199175 -8.4331388 -30.039261
-10.974448 -8.4054995 -30.275797
-9.7273569 -8.2455225 -30.498831
-8.3692055 -8.0711517 -30.732819
-6.8145695 -8.3744535 -30.840017
-5.3012996 -8.3767843 -30.835232
-3.7356849 -8.2722235 -31.082951
-2.4097133 -8.2775412 -30.862589
-0.92774063 -8.3087502 -31.067518
0.41582918 -8.1817017 -30.937826
2.20783 -8.0936213 -30.918701
3.5743623 -8.1940842 -30.983789
5.3602881 -8.120863 -30.812822
6.8825688 -8.2728977 -30.901857
8.1452961 -8.269722 -30.823137
9.6731825 -8.3640938 -30.918146
11.23052 -8.343173 -30.697254
12.832716 -7.9892225 -30.52026
13.632985 -8.2316561 -30.257832
15.195466 -8.3348579 -30.167604
-11.242597 -6.5966401 -30.254923
-9.706419 -6.7489963 -30.397493
-8.3433247 -6.661026 -30.537327
-6.7970462 -6.8782535 -30.9422
-5.2804632 -6.8546495 -30.704542
-3.8236461 -6.6812229 -31.039192
-2.5555954 -6.79773 -30.85429
-0.96737731 -6.7943373 -30.881094
0.51950312 -6.7782831 -31.008436
2.1142788 -6.6118932 -31.09296
3.4431899 -6.7525945 -30.953609
5.3194985 -6.8301477 -30.824654
6.6846561 -6.911943 -31.125425
8.0924072 -6.8097911 -30.801844
9.6305447 -6.7028956 -30.945425
11.216868 -6.8249521 -30.698809
12.759058 -6.5462499 -30.467482
13.967418 -6.7410212 -30.360378
15.394897 -6.6668487 -30.063868
-11.300619 -5.0264573 -30.121983
-9.8924456 -5.1606984 -30.383844
-8.3130465 -5.2012753 -30.718325
-6.7608809 -5.293498 -30.910538
-5.3366051 -5.275722 -30.8414
-3.8682673 -5.3371639 -31.005095
-2.4363134 -5.2966938 -30.847069
-0.99334693 -5.4136825 -31.133839
0.46009493 -5.4428692 -30.94545
2.113965 -5.08568 -30.920252
3.5704529 -5.5360818 -30.921249
5.2798476 -5.2295446 -30.89888
6.8724384 -5.3375468 -31.027199
8.1261463 -5.29494 -30.813272
9.6180162 -5.3359222 -30.970158
11.201288 -5.2095308 -30.740702
12.870707 -5.104568 -30.386822
13.694783 -5.1766205 -30.431734
15.454274 -5.3324757 -30.034418
-11.233975 -3.8360119 -30.079165
-9.7145977 -3.5572977 -30.403572
-8.3075829 -3.6364872 -30.587158
-6.6942196 -3.8666906 -30.904827
-5.3541179 -3.7679126 -30.777653
-3.8400259 -3.8235922 -30.905962
-2.4629848 -3.7113881 -30.838383
-0.96727794 -3.8045695 -31.095318
0.35694346 -3.8352396 -30.964251
2.0000618 -3.6181407 -31.030106
3.496393 -3.8707147 -30.961964
5.3084068 -3.7048872 -30.728815
6.9231567 -3.6131368 -30.845427
8.2721844 -3.7405686 -30.87302
9.6927366 -3.8046587 -30.886269
11.097065 -3.7942116 -30.682846
12.770046 -3.7027764 -30.390181
13.998837 -3.7305729 -30.302927
-11.214718 -1.8485484 -30.061249
-9.8454304 -2.1693501 -30.404072
-8.3091545 -2.1167233 -30.661404
-6.6948118 -2.1858504 -30.865101
-5.3099942 -2.2004609 -30.766529
-3.8836734 -2.2759244 -30.939661
-2.43362 -2.3725915 -30.879318
-0.86072183 -2.077529 -31.111208
0.60664791 -2.1752484 -30.922012
1.8108035 -2.1811287 -31.012674
3.4713991 -2.1869204 -30.919832
5.3236308 -2.0931065 -30.811941
6.7134891 -2.268878 -31.10973
8.1191645 -2.2963276 -30.945295
9.6104345 -2.2356389 -30.830093
11.139739 -2.1112583 -30.697886
12.739764 -2.2573225 -30.447521
13.960059 -2.1587751 -30.315887
-11.155096 -0.26299104 -30.098259
-9.5085993 -0.73307502 -30.383556
-8.2233343 -0.73211986 -30.646711
-6.6046686 -0.53636593 -30.801472
-5.2758121 -0.73913801 -30.734398
-3.782141 -0.86369759 -30.874756
-2.2596736 -0.82220632 -30.814911
-0.75268912 -0.61558473 -30.940506
0.49865782 -0.95935035 -30.91753
2.0905747 -0.78953075 -30.957497
3.5362051 -0.68566042 -30.998877
5.3114204 -0.75295317 -30.747364
6.848649 -0.76163483 -30.870531
8.2984543 -0.80881542 -30.721767
9.6537657 -0.72729349 -30.852375
11.149424 -0.60823089 -30.660837
12.891568 -0.78239107 -30.411427
13.869788 -0.66476637 -30.419462
-11.117891 0.81278306 -30.173132
-9.7053194 0.58152652 -30.564329
-8.3322678 0.75409842 -30.604904
-6.7738814 0.80445087 -30.757725
-5.2901874 0.80590302 -30.707975
-3.687217 0.76000005 -30.762449
-2.2226479 0.76701623 -30.874689
-0.90673631 0.96981168 -31.073446
0.45853588 0.54871833 -30.763384
2.0631838 0.75059223 -30.997736
3.6552687 0.65507048 -30.993279
5.3367543 0.63909119 -30.81531
6.7500467 0.73496872 -30.89963
8.1448145 0.8196944 -30.76355
9.6767426 0.84868336 -30.757124
11.347367 0.76851195 -30.701607
12.862504 0.74046701 -30.457525
13.960729 0.86646736 -30.447763
15.579576 0.73670965 -30.011559
-11.268967 2.0775957 -30.191217
-9.7784147 2.193795 -30.396149
-8.2669106 2.2967067 -30.545891
-6.6790223 2.214081 -30.734245
-5.1749892 2.4004579 -30.917387
-3.8933423 2.3484476 -30.949757
-2.5174699 2.4248862 -30.851469
-0.92336422 2.3079321 -31.136078
0.39096218 1.9272155 -30.900557
2.1478729 2.1339788 -30.835991
3.5879109 2.3228297 -30.946377
5.339612 2.0402117 -30.866972
6.7418079 2.2849624 -30.755371
8.0297174 2.3025436 -30.966829
9.5780058 2.4388673 -30.809137
11.319059 2.171875 -30.713749
12.81284 2.1179025 -30.350145
14.045575 1.9620528 -30.419426
15.11311 2.2527714 -30.027514
-11.251124 3.5146949 -30.175674
-9.7716007 3.7657776 -30.408861
-8.245347 3.7377555 -30.573071
-6.720933 3.7377234 -30.734636
-5.2996054 3.6652131 -30.762081
-3.6326931 3.791667 -30.854462
-2.297173 3.651459 -30.9669
-0.86332536 3.5710723 -30.93511
0.63244569 3.5073082 -30.817413
1.8421654 3.469629 -31.068371
3.5835104 3.8069448 -31.069933
5.3931861 3.6912704 -30.808704
6.7332606 3.6588087 -30.928942
8.0878 3.7369256 -31.136158
9.573164 3.668524 -30.792154
11.305529 3.7640586 -30.76067
12.77984 3.7033832 -30.455471
13.952057 3.3996658 -30.454926
15.092113 3.8471448 -30.076332
-11.000235 5.0731039 -30.199011
-9.7186413 5.5270042 -30.492849
-8.3856478 5.2742724 -30.621105
-6.9163408 5.2763281 -30.757877
-5.2870183 5.1483731 -30.832375
-3.6751206 5.2773361 -30.76359
-2.2343085 5.2689176 -30.849075
-0.92948872 5.1145954 -30.943007
0.64531368 5.328403 -30.807066
2.1391616 5.1066999 -30.960152
3.7678697 5.1534209 -30.855675
5.2377429 5.4829268 -30.834856
6.6255431 5.3595605 -30.867859
8.2369528 5.3085327 -30.767513
9.7033482 5.129972 -30.868536
11.354492 5.39395 -30.6807
12.767234 5.1586761 -30.463842
14.280482 5.1339235 -30.369734
15.172973 5.1654062 -30.070585
-11.050035 6.767601 -30.234194
-9.9229126 6.7754364 -30.478128
-8.3834705 6.7885256 -30.571463
-6.8570981 6.7012324 -30.796871
-5.2380209 6.6790924 -30.843887
-3.7275105 6.8240089 -30.910088
-2.1998363 6.7499623 -31.072462
-0.7549659 6.6107249 -30.978403
0.47315118 6.7588778 -30.857431
2.0437651 6.6293092 -30.944771
3.7718503 6.6055164 -31.007454
5.1906939 6.7107558 -30.841263
6.6773558 6.7266169 -30.759359
8.2245808 6.6979051 -31.003138
9.6227608 6.6114759 -30.80439
11.19935 6.6301417 -30.776127
12.61589 6.7758245 -30.450527
14.243417 6.7353868 -30.293201
15.176425 6.6439786 -30.061363
-10.927406 8.1886997 -30.291836
-9.718132 8.350811 -30.354988
-8.1723232 8.2072058 -30.640539
-6.7634735 8.1937208 -30.734564
-5.2923994 8.2962093 -30.830189
-3.6796889 8.3939199 -30.860819
-2.2151058 8.1657057 -30.916632
-0.81716269 8.4747953 -30.987925
0.62001002 8.2488117 -31.009838
2.1144576 8.3324842 -30.842529
3.7835746 8.3997231 -30.883656
5.2670007 8.3892326 -30.772709
6.6878147 8.3197994 -30.861145
8.2448511 8.3228235 -30.779402
9.7415895 8.1652927 -30.794775
11.198175 8.1482573 -30.710159
12.527205 8.099472 -30.53381
13.984663 8.3376799 -30.298304
15.176367 8.1269636 -30.038357
-11.01958 10.034722 -30.340658
-9.9252634 9.6814766 -30.277632
-8.2220221 9.6019678 -30.514395
-7.0013375 9.9001293 -30.659468
-5.2210827 9.8710089 -30.779322
-3.7168064 10.030264 -30.764038
-2.3155141 9.7851238 -30.912148
-0.85166401 9.6213427 -30.895517
0.63330501 9.627759 -30.95616
1.9955379 9.7196865 -30.850502
3.8406258 9.5008898 -31.052528
5.1908841 9.6238613 -30.998713
6.5323339 9.7422657 -30.817984
8.1791563 9.823143 -30.810728
9.6317711 9.7767906 -30.876791
11.116834 9.8104906 -30.725775
12.591864 9.646594 -30.463158
14.102858 9.5790052 -30.297558
15.220604 9.1513748 -30.110851
-10.934711 11.166994 -30.222345
-9.8477631 11.31298 -30.416716
-8.3157635 11.174908 -30.555738
-6.8692436 11.305231 -30.705814
-5.3871479 11.429334 -30.790861
-3.6892872 11.317479 -30.917374
-2.2995658 11.38092 -30.849426
-0.7797395 11.186274 -31.082235
0.51455283 11.173857 -31.007057
1.9960867 10.99688 -30.900023
3.6145132 10.917507 -30.994719
5.1618743 11.01165 -30.864618
6.6795874 11.356305 -30.783495
8.1784487 11.355415 -30.717049
9.6499977 11.444898 -30.915716
11.059395 11.215523 -30.749262
12.59575 11.245097 -30.494164
14.035105 11.205345 -30.26195
-11.123247 12.751709 -30.23391
-9.9480429 12.546057 -30.440556
-8.277976 12.81459 -30.565477
-6.9406624 12.730795 -30.76285
-5.2914453 12.732964 -30.905523
-3.6131637 12.646238 -30.774561
-2.1541398 12.644244 -31.054701
-0.74655986 12.45831 -30.943451
0.6332255 12.695909 -31.065613
2.1082675 12.596506 -30.767334
3.6169474 12.804861 -30.893341
5.2717586 12.695403 -30.862631
6.6502256 12.703928 -30.829382
8.2713938 12.732311 -30.918701
9.6028872 12.608819 -30.854736
11.003222 12.819532 -30.761261
12.560336 12.724515 -30.441858
14.176404 12.765909 -30.186863
-10.824947 14.246156 -30.087856
-9.7152214 14.331044 -30.522552
-8.1964531 14.36285 -30.584513
-6.9650912 14.228508 -30.751497
-5.3755989 14.244168 -30.906818
-3.754359 14.157381 -30.882797
-2.2556386 14.304369 -30.830238
-0.69021004 14.324334 -30.926708
0.6569702 14.27457 -31.041914
2.151484 14.089298 -30.963638
3.6026099 14.429214 -30.923075
5.18152 14.279763 -30.839659
6.6676383 14.21777 -30.822744
8.2834501 14.110597 -30.702881
9.6878004 14.264279 -30.719807
11.006422 14.310656 -30.789864
12.557213 14.303389 -30.480125
13.992383 14.287438 -30.210373
15.20653 13.548297 -30.007511
-10.905414 15.518383 -30.1535
-9.6729622 15.85373 -30.454353
-8.2004442 15.87775 -30.538103
-6.9286704 15.905097 -30.737349
-5.2978601 15.736775 -30.743025
-3.7402201 15.509529 -30.892187
-2.3484044 15.835203 -30.927071
-0.81824255 15.74993 -31.097031
0.70482475 15.739485 -30.963575
2.223772 15.657908 -30.926985
3.5938649 15.948511 -30.858562
5.3331485 15.666533 -30.837616
6.7120366 15.732772 -30.915083
8.2143755 15.559299 -30.865295
9.7698765 15.917659 -30.721003
10.858024 15.841087 -30.744774
12.581528 15.961098 -30.375723
14.12542 15.808095 -30.218821
-10.986693 17.257797 -30.239094
-9.6710262 17.304485 -30.395664
-8.1917696 17.423693 -30.500952
-6.9665117 17.436243 -30.797358
-5.3717175 17.340014 -30.776464
-3.8186445 17.04147 -30.814705
-2.5122371 17.270638 -30.855862
-0.84590238 17.28241 -30.772505
0.67907447 17.346998 -30.833242
2.2751703 17.128531 -30.943707
3.6628139 17.143198 -30.881659
5.171967 17.177065 -30.805511
6.6948109 17.163197 -30.675268
8.2789383 17.096041 -30.776039
9.682147 17.379801 -30.802544
10.928493 17.206688 -30.821093
12.523136 17.356533 -30.45018
13.966769 17.593149 -30.338747
-10.938853 18.342403 -30.21269
-9.5471182 18.700888 -30.433456
-8.223485 18.853434 -30.47298
-6.9106698 18.800089 -30.704094
-5.2257323 18.890261 -30.758287
-3.6610243 18.781219 -30.825945
-2.3151703 18.635008 -30.949228
-0.86479229 18.679726 -31.004419
0.62771118 18.840199 -30.818739
2.2348821 18.703978 -30.909203
3.8304794 18.709324 -30.809427
5.3122921 18.631268 -30.833561
6.70645 18.72213 -30.846596
8.2087908 18.697638 -30.84251
9.7250395 18.790878 -30.831247
11.072533 18.707287 -30.799801
12.553488 19.003559 -30.434431
14.232675 18.786379 -30.20505
-11.068782 19.937223 -30.216698
-9.6002111 20.080383 -30.627466
-8.2550707 20.471027 -30.524315
-6.8315663 20.468513 -30.777042
-5.2875738 20.413717 -30.705729
-3.7981479 20.428562 -30.914682
-2.3728628 20.292227 -30.862181
-0.82200903 20.193016 -30.902046
0.5783307 20.356703 -31.004904
2.4465859 20.274052 -30.954535
3.9360766 20.180523 -30.817841
5.2016582 20.098164 -30.881069
6.5942178 20.170618 -30.831404
8.1249123 20.492943 -30.969267
9.774909 20.231005 -30.770563
11.059473 20.422926 -30.785604
12.557087 20.561337 -30.433567
14.116203 20.330315 -30.241854
-10.949074 21.945688 -30.214582
-9.6944771 21.705452 -30.413706
-8.2215052 21.93577 -30.497236
-6.7254119 21.980625 -30.672794
-5.4460654 21.798552 -30.747541
-3.8262608 21.70977 -30.893946
-2.3360708 21.836182 -30.963839
-0.95302838 21.743858 -30.892332
0.58523071 21.763256 -30.881254
2.2054725 21.695095 -30.9433
3.6763663 21.653786 -30.930204
5.1646461 21.609495 -30.859018
6.6887846 21.731756 -30.801594
8.3578644 21.790054 -30.80505
9.7587872 21.76807 -30.836552
11.13888 22.057152 -30.74893
12.62396 21.993895 -30.515024
14.084152 22.147636 -30.224417
