# .PCD v0.7 - Point Cloud Data file format
VERSION 0.7
FIELDS x y z rgba
SIZE 4 4 4 4
TYPE F F F U
COUNT 1 1 1 1
WIDTH 1043
HEIGHT 1
VIEWPOINT 0 0 0 1 0 0 0
POINTS 1043
DATA ascii
0.020820647 -0.024757624 0.018042445 11106053
0.018808216 -0.024008036 0.019348264 11040774
0.016792148 -0.023262322 0.020659566 10909703
0.014772445 -0.022520423 0.021976352 10779405
0.010780066 -0.019530237 0.023662925 10778642
0.0087504685 -0.018799007 0.024994731 10844180
0.0067172348 -0.018071651 0.026332021 10647830
0.005998522 -0.018843889 0.027423739 10450987
0.0052798092 -0.019616127 0.028515458 11634496
0.0045610964 -0.020388305 0.029607058 12824174
0.0038423836 -0.021160543 0.030698776 14600860
0.0031236708 -0.021932721 0.031790376 16373393
0.032502949 0.0065793395 -0.0088009834 10520934
0.03304258 0.0042476058 -0.0078753233 10057055
0.033585876 0.0019197464 -0.006955266 9534816
0.034132689 -0.0004042387 -0.0060406923 9992546
0.034052163 -0.0019465089 -0.0050457716 10390369
0.033341587 -0.0027099848 -0.0039664507 10391393
0.033896536 -0.0050252676 -0.0030641556 10390102
0.034455121 -0.0073366761 -0.0021673441 10782795
0.035017222 -0.0096440911 -0.001275897 11174199
0.03431204 -0.010401785 -0.00020480156 11171364
0.033606857 -0.01115948 0.00086629391 11170580
0.03417629 -0.013459265 0.0017466545 11170308
0.033472925 -0.014215052 0.0028150082 11105031
0.033408582 -0.015739858 0.0037853718 11105033
0.032706112 -0.016494632 0.0048522949 11039501
0.032003611 -0.017249405 0.0059193373 11039250
0.030659348 -0.017238021 0.007088542 11039244
0.029955953 -0.017993748 0.0081570148 11039495
0.029252559 -0.018749475 0.0092253685 10973704
0.028549224 -0.019505203 0.010293722 10973704
0.026554912 -0.018736243 0.011577487 10973702
0.02584973 -0.019493937 0.012648702 11039492
0.025144547 -0.020251632 0.013719797 11105028
0.024439365 -0.021009326 0.014790893 11170564
0.023734182 -0.021766961 0.015862107 11170821
0.021729201 -0.021009743 0.017162323 11236614
0.02102223 -0.021769404 0.01823616 11302407
0.0203152 -0.022529006 0.019309998 11106057
0.018303007 -0.021779478 0.020621181 10843661
0.017594188 -0.022541046 0.02169776 10646289
0.014922053 -0.021044731 0.023138642 10449687
0.011589259 -0.018802524 0.024710417 10514716
0.0095616877 -0.018069506 0.026044846 10581527
0.0075305402 -0.017340302 0.027384877 10517009
0.0068118274 -0.01811254 0.028476477 10450989
0.0054341853 -0.018136978 0.029696345 11696458
0.0047145784 -0.01891017 0.030789495 12888946
0.033314198 0.0073088408 -0.0077508688 10984572
0.033851773 0.0049752593 -0.0068279505 10388335
0.034393042 0.0026456118 -0.0059103966 9792605
0.033679724 0.0018792152 -0.0048270226 9993290
0.034226269 -0.00044471025 -0.0039178133 10126423
0.034145653 -0.0019869208 -0.0029255152 10784612
0.034698576 -0.0043039918 -0.0020258427 11374169
0.035255104 -0.0066172481 -0.0011316538 11176525
0.034548134 -0.0073768497 -5.7816505e-05 10980160
0.035109997 -0.0096842051 0.00082814693 11042354
0.034404814 -0.01044184 0.0018992424 11170330
0.034972221 -0.012743533 0.0027769804 11170561
0.032994419 -0.011957228 0.0040415525 11171076
0.033565432 -0.014254987 0.0049136877 11105286
0.032862037 -0.015010774 0.0059821606 11105030
0.032158673 -0.015766501 0.0070505142 11105029
0.030173689 -0.014987946 0.0083260536 11104773
0.029468447 -0.01574564 0.0093971491 11039493
0.028763264 -0.016503334 0.010468245 10973703
0.026771158 -0.015732646 0.011754632 10973705
0.026064187 -0.016492248 0.012828588 10973448
0.025357217 -0.017251849 0.013902426 11039238
0.024650186 -0.01801151 0.014976263 11104774
0.023943216 -0.018771112 0.0160501 11105030
0.023236185 -0.019530714 0.017124057 11171080
0.022529215 -0.020290315 0.018197894 11171337
0.021822244 -0.021049976 0.019271731 11237131
0.019813806 -0.020296633 0.020582795 11040524
0.019105047 -0.021058202 0.021659493 10843668
0.016438693 -0.019556224 0.023100138 10646043
0.01442042 -0.01881361 0.024426222 10448417
0.012398452 -0.01807487 0.025757909 10514982
0.010372907 -0.017339945 0.02709496 10647065
0.0076877177 -0.015858352 0.028564453 10581772
0.0069681108 -0.016631544 0.029657483 10449712
0.0062485039 -0.017404735 0.030750513 11765331
0.0055288374 -0.018177867 0.031843543 13087863
0.034125417 0.0080384016 -0.0067007542 11374958
0.033408493 0.0072680712 -0.0056117773 10718820
0.033945858 0.0049346089 -0.0046942234 10060640
0.03448686 0.002605021 -0.0037821531 9995868
0.033773571 0.0018386245 -0.0026986599 9866328
0.033060253 0.001072228 -0.0016152859 11115347
0.033608377 -0.0012496114 -0.00071418285 12358995
0.033528537 -0.0027908087 0.00027406216 11569235
0.034083039 -0.0051058531 0.0011656284 10717255
0.034641117 -0.0074170232 0.0020515919 10978875
0.033934146 -0.0081766248 0.0031255484 11172645
0.034497589 -0.010481954 0.0040032864 11170574
0.033792377 -0.011239648 0.005074501 11170825
0.033087194 -0.011997283 0.0061455965 11171076
0.032382011 -0.012754977 0.007216692 11171075
0.031676799 -0.013512671 0.0082877874 11171075
0.029692143 -0.012734354 0.0095686913 11105283
0.028985173 -0.013493955 0.010642529 11039748
0.028278202 -0.014253557 0.011716366 10973959
0.027571172 -0.015013218 0.012790322 10973962
0.025577456 -0.014244497 0.014084816 10973707
0.024868637 -0.015006065 0.015161395 11039244
0.024159878 -0.015767634 0.016238093 11105032
0.024743229 -0.018051684 0.017085791 11105029
0.022742242 -0.017290711 0.018391252 11105543
0.022033483 -0.01805228 0.019467831 11171337
0.021324664 -0.018813848 0.02054441 11171593
0.019316524 -0.018060625 0.021860957 11040520
0.018605918 -0.01882416 0.022940278 10843151
0.015940875 -0.017321348 0.024387598 10645525
0.013922781 -0.016578794 0.025719166 10383645
0.013207644 -0.017347157 0.026805401 10580772
0.011184126 -0.016610444 0.028145075 10712601
0.0085019767 -0.01512605 0.029618502 10582031
0.0077823699 -0.015899241 0.030711532 10450225
0.007062763 -0.016672432 0.031804562 11827540
0.0063431561 -0.017445624 0.032897592 13217400
0.027763337 0.022889078 -0.0077149868 14004087
0.029522926 0.018958688 -0.0069315434 11833200
0.030042917 0.016606927 -0.0059933662 10849641
0.030566484 0.01425904 -0.0050606728 9931361
0.032344103 0.010348022 -0.0043047667 9995608
0.032250583 0.0087924004 -0.0032986403 10063203
0.034039915 0.0048939586 -0.0025604963 10588014
0.033324808 0.0041256547 -0.0014743805 11111256
0.033867389 0.0017980933 -0.00057041645 11836226
0.0331541 0.0010316968 0.00051307678 12559437
0.033701986 -0.0012900233 0.0014088154 11769176
0.033622026 -0.002831161 0.0023943186 10979406
0.03417626 -0.0051461458 0.0032804012 11110468
0.03473413 -0.0074571967 0.0041611195 11239472
0.034027129 -0.0082168579 0.0052349567 11237403
0.033320129 -0.0089764595 0.006308794 11170830
0.032613158 -0.0097360611 0.0073826313 11171073
0.033179969 -0.012037396 0.0082496405 11171329
0.032474786 -0.012795091 0.0093207359 11171073
0.02921471 -0.010477006 0.010816693 11170818
0.028505892 -0.011238575 0.011893272 11105282
0.027797073 -0.012000144 0.012969851 11039750
0.027088314 -0.012761712 0.014046431 11039498
0.026379496 -0.013523221 0.01512301 11039246
0.025670677 -0.01428479 0.016199708 11105041
0.024961919 -0.015046358 0.017276287 11170570
0.0242531 -0.015807927 0.018352866 11170819
0.023544282 -0.016569436 0.019429445 11171078
0.022835523 -0.017331004 0.020506144 11171337
0.022126704 -0.018092573 0.021582723 11171335
0.020120591 -0.017337561 0.022901773 10974468
0.018760413 -0.01734376 0.024103761 10842890
0.016748041 -0.016595483 0.025432467 10580239
0.014731914 -0.01585114 0.026766658 10252569
0.014016837 -0.016619444 0.027852893 10515234
0.011995405 -0.015880942 0.029195189 10712602
0.0093162954 -0.014393806 0.03067255 10647057
0.0085966885 -0.015166998 0.03176558 10514739
0.007877022 -0.01594013 0.032858729 11896661
0.0071574152 -0.016713321 0.033951759 13285753
0.028813154 0.026782334 -0.0087064505 16439462
0.02808097 0.025995612 -0.0075942278 16109457
0.027348667 0.025208831 -0.0064820051 14462844
0.029102415 0.021272898 -0.0057011843 12754031
0.029618531 0.018917382 -0.004762888 10586723
0.030138284 0.016565681 -0.0038300753 8420200
0.031910032 0.012649119 -0.0030766726 9203053
0.033063859 0.0095237494 -0.002245903 9996138
0.033597112 0.0071865916 -0.0013335943 11181159
0.034134001 0.0048533082 -0.00042688847 12359778
0.034674555 0.0025239587 0.00047445297 12559197
0.033961236 0.0017575622 0.0015579462 12756061
0.034507066 -0.00056600571 0.002450943 12033629
0.033795565 -0.0013304949 0.0035316944 11245140
0.033715516 -0.002871573 0.0045144558 11309900
0.034269512 -0.0051864386 0.0053952932 11306809
0.033560723 -0.0059479475 0.0064718723 11237670
0.032851934 -0.006709516 0.0075484514 11171351
0.033413142 -0.009016633 0.0084183216 11170824
0.032706171 -0.0097762346 0.0094921589 11171077
0.031999171 -0.010535836 0.010565996 11171074
0.02874127 -0.0082160234 0.012069941 11170819
0.029307932 -0.010517299 0.012931466 11170821
0.027320117 -0.0097429752 0.014228582 11105289
0.02660951 -0.010506511 0.015307903 11105038
0.025898904 -0.011269987 0.016387343 11105039
0.025188297 -0.012033463 0.017466664 11170833
0.02447769 -0.012796998 0.018545985 11236362
0.023767084 -0.013560474 0.019625306 11236098
0.023056477 -0.01432395 0.020704627 11171079
0.022345871 -0.015087485 0.021783948 11171084
0.021635264 -0.015850961 0.022863388 11105546
0.020276994 -0.015855253 0.024065256 10974216
0.018268496 -0.015103221 0.025393844 10842636
0.016256243 -0.014355123 0.026727915 10514192
0.015541106 -0.015123427 0.02781415 10121753
0.013523549 -0.014381111 0.029156446 10449699
0.011502296 -0.013642669 0.030504227 10712859
0.010130554 -0.013661504 0.031726718 10648083
0.0094109476 -0.014434695 0.032819748 10581559
0.0086913407 -0.015207887 0.033912778 11958362
0.0086274445 -0.016731501 0.034870863 13349498
0.0079087317 -0.017503738 0.035962582 14866331
0.028406233 0.029109716 -0.0074738264 16373926
0.028909534 0.02674073 -0.0065217018 16112019
0.028177291 0.025953948 -0.0054094791 14334080
0.028685957 0.023590803 -0.00446558 12560495
0.029198259 0.021231472 -0.0035271645 11374173
0.029714137 0.018876076 -0.0025942326 10185328
0.032726347 0.01338321 -0.0020200014 9926018
0.033253074 0.011039436 -0.0011035204 9733489
0.033158392 0.0094828606 -0.00010144711 9928799
0.033691436 0.007145822 0.00080537796 10130796
0.034228086 0.0048127174 0.0017068386 11445112
0.034768373 0.0024834275 0.0026026964 12823149
0.034055084 0.001717031 0.0036861897 12165985
0.034600675 -0.00060647726 0.0045739412 11509339
0.034519583 -0.0021484494 0.0055553913 11441236
0.033808976 -0.0029119253 0.0066347122 11374915
0.034362763 -0.0052267313 0.007510066 11240241
0.033653975 -0.0059882402 0.0085867643 11171104
0.032945156 -0.0067498088 0.0096633434 11171086
0.032236367 -0.0075113773 0.010739923 11236872
0.031527579 -0.0082729459 0.011816502 11236610
0.02890864 -0.0067221522 0.013219595 11236357
0.02819714 -0.0074866414 0.014300346 11170823
0.027485639 -0.008251071 0.015381098 11170572
0.026774138 -0.0090155602 0.01646173 11170833
0.02670297 -0.010546863 0.01742816 11170833
0.025992364 -0.011310399 0.018507481 11171345
0.025281757 -0.012073874 0.019586802 11236617
0.024571151 -0.01283735 0.020666242 11236609
0.023860544 -0.013600886 0.021745563 11171080
0.022505134 -0.013602316 0.022946 11171086
0.021793634 -0.014366746 0.024026752 11170829
0.019788951 -0.013610959 0.02535522 10974219
0.017780513 -0.012859106 0.026689291 10842894
0.015768558 -0.012111068 0.028028727 10579984
0.013753027 -0.011366844 0.029373646 10318618
0.013034314 -0.012139082 0.030465364 10516004
0.01166448 -0.012156069 0.031687737 10778909
0.0096408427 -0.011420608 0.033045053 10647573
0.0089193881 -0.012195706 0.034140825 10580794
0.008197993 -0.012970865 0.035236597 12028511
0.0087859929 -0.015248775 0.036059856 13483900
0.008066386 -0.016021967 0.037152886 14864280
0.029236823 0.029856682 -0.0063985586 16373670
0.029738098 0.027485847 -0.0054490566 16043921
0.029005855 0.026699066 -0.004336834 14200956
0.029512495 0.024334133 -0.0033956766 12363113
0.03002277 0.021972895 -0.0024598837 12163670
0.030536622 0.01961571 -0.0015295744 11962460
0.03105405 0.01726228 -0.00060486794 10712931
0.034067363 0.011771679 -4.9471855e-05 9402197
0.033971667 0.010214269 0.00095129013 8669767
0.033252954 0.0094420314 0.0020430088 7897439
0.033785731 0.0071051121 0.0029444695 10397815
0.034322143 0.0047720671 0.0038404465 12822895
0.033607036 0.0040037036 0.0049266815 12297832
0.034148902 0.0016764402 0.0058144331 11703905
0.034694284 -0.00064688921 0.0066968203 11570266
0.034613073 -0.0021888614 0.0076756477 11374139
0.033902466 -0.0029523373 0.0087549686 11308061
0.03319186 -0.0037158728 0.0098342896 11172630
0.032481283 -0.0044793487 0.01091361 11236880
0.031770676 -0.0052428246 0.011992931 11236617
0.03106007 -0.0060063004 0.013072371 11236355
0.02971378 -0.0059981346 0.014261842 11236358
0.029002279 -0.0067626238 0.015342593 11236105
0.028290778 -0.0075270534 0.016423225 11171083
0.027579218 -0.0082915425 0.017503977 11171086
0.026867718 -0.0090559721 0.018584609 11171606
0.026156217 -0.0098204613 0.01966536 11237919
0.025444716 -0.010584891 0.020746112 11237395
0.024733216 -0.01134938 0.021826863 11236872
0.022735983 -0.010585904 0.023149729 11171085
0.022022694 -0.01135236 0.024233222 11171091
0.021309406 -0.012118757 0.025316596 11171085
0.019304842 -0.011363029 0.026650548 11040263
0.018589705 -0.012131393 0.027736783 10842895
0.015284985 -0.009863317 0.029334784 10644503
0.014566272 -0.010635495 0.030426383 10449689
0.013198406 -0.010650575 0.031648755 10647579
0.011178583 -0.0099113584 0.033005953 10779160
0.0091551244 -0.0091760159 0.034368634 10713877
0.0071280897 -0.0084445477 0.03573668 10582330
0.0064030588 -0.0092235804 0.036837935 12091232
0.0017557442 -0.0054886341 0.038764477 13546619
-0.00028392673 -0.0047707558 0.040151834 14865558
0.00029483438 -0.0070582032 0.040983438 16175501
0.031298906 0.029017687 -0.0054887533 16373925
0.030566663 0.028230965 -0.0043765306 16046734
0.029834419 0.027444243 -0.003264308 14268023
0.030339032 0.025077403 -0.002325654 12493155
0.030847222 0.022714376 -0.0013926029 12165199
0.031359047 0.020355344 -0.00046491623 11904329
0.030632228 0.019574404 0.000639081 11375683
0.033637583 0.014076352 0.0011892319 10851385
0.034162015 0.01173079 0.0020977259 10058286
0.033442408 0.010957599 0.0031907558 9272402
0.033347487 0.0094012022 0.0041873455 10919541
0.033880055 0.0070643425 0.0050835609 12561778
0.03316316 0.0062940717 0.0061724186 11244142
0.033701122 0.0039630532 0.0070604086 9931111
0.035499394 7.712841e-05 0.0077390671 10718559
0.034787893 -0.00068736076 0.0088196993 11505716
0.034076363 -0.0014517903 0.0099004507 11371017
0.033364862 -0.0022162795 0.010981202 11236877
0.032653362 -0.0029807091 0.012061834 11236625
0.031941861 -0.0037451982 0.013142586 11236618
0.03123036 -0.0045096874 0.014223337 11236611
0.029249579 -0.0037288666 0.01552701 11236615
0.02853629 -0.0044952631 0.016610384 11236874
0.027823001 -0.0052616596 0.017693877 11237642
0.027109653 -0.0060280561 0.01877737 11237386
0.027672857 -0.0083319545 0.019626856 11237147
0.026961356 -0.0090964437 0.020707607 11237420
0.026249856 -0.0098608732 0.021788239 11237918
0.025538355 -0.010625362 0.022868991 11236879
0.023543149 -0.0098600984 0.024194598 11171091
0.02282986 -0.010626495 0.025278091 11171095
0.020829111 -0.0098670125 0.026611805 11171085
0.020114034 -0.010635376 0.02769804 10974978
0.018107921 -0.0098817348 0.029039979 10844176
0.016098291 -0.0091319084 0.030387521 10646045
0.014732271 -0.0091451406 0.031609774 10449687
0.014012665 -0.0099183321 0.032702923 10581777
0.010696739 -0.0076630116 0.034329414 10779155
0.0086735189 -0.0069277883 0.03569746 10648084
0.0066467226 -0.0061964393 0.03707099 10581563
0.0059199035 -0.0069773197 0.038174987 12094817
0.0038876832 -0.0062518716 0.039556742 13680507
0.00054463744 -0.0040256381 0.04122436 14930068
-0.00018760562 -0.0048123598 0.042336583 16175756
0.030898064 0.031350613 -0.0042481422 16373411
0.031395227 0.028976083 -0.0033038855 16042886
0.030662984 0.028189361 -0.0021916628 14331240
0.03116557 0.025820732 -0.0012557507 12559974
0.031671733 0.023455799 -0.00032532215 12230244
0.030943066 0.022672951 0.00078141689 11837531
0.031454682 0.020313978 0.0017037392 12033875
0.033211887 0.016384661 0.0024331808 12228431
0.033732504 0.014035344 0.003341794 11439436
0.034256697 0.011689901 0.0042448044 10654820
0.03353706 0.01091671 0.0053378344 11511932
0.03344205 0.0093603134 0.0063318014 12293230
0.032723337 0.0085881352 0.0074235201 10185313
0.033257455 0.0062533021 0.0083115101 8093527
0.033795208 0.0039224029 0.0091940165 9867341
0.034336597 0.0015953779 0.010071039 11568949
0.033623278 0.0008289814 0.011154532 11433246
0.03290996 6.2584877e-05 0.012238026 11301910
0.033458471 -0.0022566915 0.013104081 11236111
0.032746971 -0.0030211806 0.014184833 11170826
0.030770034 -0.0022366047 0.015488386 11236613
0.028789431 -0.0014559627 0.016797423 11236614
0.028074294 -0.0022242665 0.017883539 11302664
0.028630108 -0.0045358539 0.018738747 11302920
0.027916819 -0.0053022504 0.019822121 11303176
0.02720353 -0.0060686469 0.020905614 11237137
0.026490241 -0.0068350434 0.021989107 11236890
0.025776893 -0.00760144 0.023072481 11236881
0.025063604 -0.0083678365 0.024155974 11236361
0.024350315 -0.009134233 0.025239468 11171084
0.022353441 -0.0083709955 0.026573062 11170830
0.021638304 -0.0091392994 0.027659297 11105800
0.019636065 -0.0083819032 0.029001236 10974978
0.017630249 -0.0076283813 0.030348659 10777864
0.016266197 -0.0076396465 0.031570911 10646031
0.014254063 -0.0068929195 0.032927871 10449682
0.013532668 -0.0076680183 0.034023643 10581526
0.0089228451 -0.0038949251 0.035927653 10713362
0.0081960261 -0.0046758652 0.037031651 10648335
0.0061694086 -0.0039446354 0.038410544 10517046
0.0054408014 -0.0047275424 0.039517283 12157021
0.0047121346 -0.0055103898 0.040624022 13743992
0.0013732016 -0.0032805204 0.042297006 14932372
-0.0006659925 -0.0025628209 0.043695092 16110220
0.031728715 0.032097578 -0.0031728745 16373153
0.030994684 0.031308889 -0.00205791 16109693
0.031491578 0.028934479 -0.0011191368 14135897
0.030759305 0.028147697 -6.9141388e-06 12233833
0.031261653 0.025779188 0.00092363358 12100729
0.031767577 0.023414373 0.0018486977 11968110
0.032277137 0.021053612 0.0027683973 12098914
0.034030259 0.0171206 0.0034925938 12295014
0.034548819 0.014769435 0.0043984652 12033642
0.033827394 0.013994336 0.0054942369 11771510
0.034351379 0.011649013 0.0063920021 10784642
0.034255326 0.010091662 0.0073846579 9736555
0.033536613 0.0093194842 0.0084762573 9731155
0.034068674 0.0069828629 0.0093616247 9795655
0.034604371 0.004650116 0.010241508 10584634
0.035143733 0.0023212433 0.011115909 11372087
0.034430414 0.0015548468 0.012199402 11302963
0.033717126 0.00078845024 0.013282895 11235616
0.033003807 2.2053719e-05 0.014366269 11236108
0.032290518 -0.0007443428 0.015449762 11170570
0.0315772 -0.0015107989 0.016533256 11170823
0.029598624 -0.00072824955 0.017844915 11236358
0.028883487 -0.001496613 0.018931031 11236869
0.02816835 -0.0022649169 0.020017266 11302661
0.027453274 -0.0030332804 0.021103501 11237125
0.028010637 -0.0053427815 0.021950483 11236358
0.027297348 -0.0061091781 0.023033857 11236615
0.025307924 -0.0053383112 0.024361968 11236357
0.024592847 -0.0061066151 0.025448203 11236611
0.02387771 -0.0068749785 0.026534438 11236868
0.023162633 -0.0076432824 0.027620554 11171077
0.021164209 -0.0068821311 0.028962374 11171331
0.019162267 -0.0061247945 0.030309677 10974721
0.018443555 -0.0068969727 0.031401396 10842881
0.015791804 -0.0053836703 0.03288877 10580481
0.013779908 -0.0046370029 0.034251094 10317838
0.013056666 -0.0054140687 0.035349727 10515738
0.0084511936 -0.0016374588 0.037264347 10778386
0.0077225268 -0.0024203658 0.038371086 10647817
0.0056962073 -0.001689136 0.039755344 10516273
0.0049657524 -0.0024739504 0.040864825 12095576
0.0029340088 -0.0017486215 0.042257309 13747062
0.00089868903 -0.0010271668 0.043655276 14929812
0.00016465783 -0.0018158555 0.044770241 16109196
0.031825274 0.032055855 -0.00098264217 16107390
0.031091243 0.031267166 0.0001322031 13999455
0.031587899 0.028892875 0.0010656118 11837805
0.030855685 0.028106093 0.0021778345 11970684
0.031357735 0.025737643 0.003103137 12034415
0.031863421 0.023373008 0.0040227175 12229218
0.032372743 0.021012306 0.0049370527 12363622
0.034125417 0.017079473 0.0056505203 12628843
0.034643739 0.014728427 0.0065510273 12883052
0.035165638 0.012381256 0.0074460506 10052461
0.034446031 0.011608064 0.0085390806 7172956
0.033726424 0.010834873 0.0096321106 9338187
0.033631146 0.0092785954 0.010620713 11435839
0.034162998 0.0069420934 0.011500716 11303475
0.034698457 0.0046094656 0.012375236 11172395
0.035237581 0.0022807121 0.013244271 11170850
0.034524262 0.001514256 0.014327645 11171095
0.033810973 0.00074785948 0.015411139 11171340
0.033097655 -1.8537045e-05 0.016494632 11171081
0.032384336 -0.00078493357 0.017578006 11171078
0.030407816 -5.9604645e-07 0.018892407 11171077
0.02969268 -0.00076889992 0.019978523 11236868
0.028977543 -0.0015372634 0.021064758 11237124
0.028262466 -0.0023055673 0.022150874 11236867
0.02754733 -0.0030739307 0.023237109 11171077
0.026832253 -0.0038422346 0.024323344 11171335
0.026117116 -0.0046105981 0.02540946 11171082
0.024126202 -0.0038417578 0.026745677 11236621
0.023409277 -0.0046120286 0.027834654 11236618
0.021412939 -0.0038490295 0.029179096 11236616
0.020694226 -0.0046212077 0.030270815 11236869
0.019334048 -0.0046287179 0.031492949 11040258
0.017329603 -0.0038744211 0.032849789 10843140
0.015321523 -0.0031239986 0.034211993 10514695
0.013309866 -0.0023774505 0.035579801 10187281
0.011294574 -0.0016347766 0.036952972 10515996
0.0092757046 -0.00089603662 0.038331628 10778643
0.0085470378 -0.001678884 0.039438367 10648073
0.0065227449 -0.0009458065 0.040825367 10451507
0.0044948757 -0.00021678209 0.042217731 12093022
0.0024633706 0.00050848722 0.04361558 13744252
-0.00022235513 0.0019848347 0.045163155 14930842
0.00034376979 -0.00031483173 0.045991063 16109711
0.031308383 0.03280884 0.0012981892 13608804
0.031187803 0.031225443 0.0023224354 10982002
0.030453712 0.030436754 0.0034373999 11443071
0.030952007 0.028064489 0.0043627024 11904112
0.032687932 0.02411443 0.0050901175 12430689
0.033195198 0.02175194 0.0060015917 13022054
0.034943789 0.017815471 0.0067098141 11706987
0.034220546 0.017038405 0.0078083277 10394466
0.03473863 0.014687419 0.0087034702 9729368
0.034017205 0.01391232 0.0097993612 9067598
0.034540713 0.011567175 0.010686278 10254915
0.034444422 0.010010004 0.01167345 11504440
0.033725709 0.0092377663 0.012765169 11369772
0.034257323 0.0069013238 0.013639808 11236639
0.034792513 0.0045688152 0.014508843 11236881
0.034077406 0.0038004518 0.015595078 11237134
0.033362299 0.0030321479 0.016681314 11236875
0.032647192 0.0022637844 0.017767429 11171336
0.031932086 0.0014954805 0.018853664 11171332
0.029955834 0.0022796988 0.020173311 11171332
0.029238909 0.001509428 0.021262288 11171331
0.028521985 0.0007391572 0.022351146 11171586
0.02780506 -3.1113625e-05 0.023440123 11236865
0.027088195 -0.00080138445 0.024529099 11236612
0.02637127 -0.0015716553 0.025617957 11236870
0.025654346 -0.0023419261 0.026706934 11236623
0.02366367 -0.001573205 0.028048515 11236631
0.022944957 -0.0023454428 0.029140234 11301905
0.022226244 -0.0031176209 0.030231833 11236618
0.020867914 -0.0031232834 0.031453967 11236871
0.020148307 -0.0038964748 0.032547116 11040259
0.018145889 -0.0031403303 0.03390646 10908936
0.014855295 -0.00086069107 0.035540462 10580748
0.012843877 -0.0001142025 0.036913633 10318357
0.012116998 -0.00089514256 0.038017631 10581534
0.0088101923 0.0013670921 0.039676309 10778900
0.0080797374 0.00058227777 0.040785789 10647305
0.0060556829 0.0013151169 0.042178035 10514486
0.0040279925 0.0020440817 0.043575883 12095587
0.0032939613 0.0012554526 0.044690847 13747586
0.0019103587 0.0012227297 0.045951247 14864288
0.032139987 0.0335567 0.0023747683 13275999
0.031405061 0.032767057 0.003491044 10128489
0.031284362 0.03118372 0.0045126677 10981234
0.031780571 0.028809607 0.0054352283 11771757
0.032280356 0.026439428 0.0063524246 12697959
0.034017652 0.022491515 0.0070663691 13608810
0.034526497 0.020130992 0.0079697371 10717294
0.033801466 0.019352019 0.0090709925 7831136
0.034315675 0.016997278 0.0099662542 9402962
0.033592463 0.016220212 0.011064768 10910531
0.03286925 0.015443146 0.012163281 11239987
0.033390701 0.013096213 0.013047576 11501352
0.033915758 0.010753095 0.013926387 11368476
0.033196121 0.0099799037 0.015019417 11236885
0.033101529 0.0084246993 0.016001225 11302415
0.033634692 0.006090343 0.016867757 11302417
0.032917798 0.0053200722 0.017956614 11236883
0.033456385 0.0029914975 0.018814921 11171339
0.031483978 0.0037795305 0.020134568 11171075
0.029507965 0.0045636296 0.021459579 11171331
0.028789192 0.0037914515 0.022551298 11171331
0.029333204 0.0014686584 0.02340138 11105796
0.027351767 0.0022469759 0.024734616 11236614
0.026633054 0.0014747977 0.025826335 11302150
0.025914341 0.00070255995 0.026917934 11302406
0.025195628 -6.9618225e-05 0.028009653 11302155
0.024476916 -0.000841856 0.029101372 11301905
0.023758203 -0.0016140938 0.030192971 11302156
0.022401839 -0.0016178489 0.031415105 11302408
0.021682233 -0.0023909807 0.032508135 11236870
0.020962626 -0.0031641722 0.033601165 11105540
0.01768145 -0.00087505579 0.035232186 10908933
0.014393121 0.0014063716 0.036874294 10712071
0.013666302 0.00062543154 0.037978292 10449938
0.011653334 0.0013697743 0.03935957 10647069
0.00963673 0.0021103621 0.040746212 10778643
0.0076164901 0.0028469563 0.042138457 10647561
0.005592674 0.0035797358 0.043536067 10516022
0.0048586428 0.0027910471 0.044651031 12157795
0.0034769475 0.0027602315 0.045911551 13744255
0.0014450252 0.0034842491 0.047321558 14865052
0.030043572 0.039879203 0.0028870106 16439676
0.031748831 0.035897613 0.0036380291 13345370
0.031012088 0.035106003 0.0047571659 10254944
0.03150174 0.032725334 0.0056840181 10323045
0.031380922 0.031141996 0.0067027807 10389097
0.031876892 0.028768003 0.0076200962 10195565
0.032376468 0.026397943 0.0085318089 10002543
0.032879651 0.024031639 0.0094381571 8942960
0.034621865 0.020089805 0.010133028 7887966
0.033896834 0.019310772 0.011234283 9534284
0.033171803 0.018531799 0.012335539 11178552
0.033687621 0.016179144 0.013222694 11305507
0.034207016 0.013830304 0.014104366 11499544
0.033485591 0.013055205 0.015200138 11433996
0.03401044 0.010712206 0.016073585 11433228
0.033290803 0.0099390149 0.017166615 11368204
0.033196092 0.0083838701 0.01814568 11302419
0.032477349 0.0076116323 0.019237399 11302426
0.033012122 0.0052793026 0.020095706 11236622
0.032295197 0.0045090318 0.021184683 11236865
0.030321211 0.0052949786 0.022512436 11236866
0.029602498 0.0045228004 0.023604035 11236611
0.028883785 0.0037505627 0.024695754 11236615
0.028165072 0.0029783845 0.025787354 11236618
0.026814252 0.0029803514 0.027004004 11301896
0.026094586 0.00220716 0.028097034 11302405
0.025374979 0.0014340281 0.029190063 11302152
0.024655372 0.0006608367 0.030283093 11302154
0.023935765 -0.00011235476 0.031376123 11301896
0.023216158 -0.00088554621 0.032469153 11302406
0.021221429 -0.00012183189 0.033828378 11236870
0.020499974 -0.0008969903 0.03492415 11040005
0.018499821 -0.00013911724 0.036291599 10908931
0.015215605 0.002145946 0.037938952 10646273
0.013206452 0.0028941035 0.039320111 10449422
0.011193663 0.0036384463 0.040706754 10647067
0.0091772974 0.0043788552 0.042098761 10778642
0.0071573555 0.0051153898 0.04349637 10581513
0.0064232647 0.0043267012 0.044611335 10448438
0.0050435364 0.0042977929 0.045871735 12095074
0.0043086112 0.0035081506 0.04698801 13812861
0.00098374486 0.0057495832 0.048696995 14863767
0.030140966 0.039837122 0.0050959587 13411163
0.030623168 0.037448764 0.0060284138 10324316
0.031109005 0.035064161 0.0069553852 9667164
0.031598419 0.032683551 0.007876873 9010776
0.031477481 0.031100273 0.008893013 7692373
0.031973213 0.028726339 0.0098048449 6384711
0.033704132 0.024773061 0.010505438 7163961
0.034208894 0.022408903 0.01140368 7890492
0.034717232 0.020048559 0.012296319 9667904
0.033992201 0.019269586 0.013397574 11436594
0.03326717 0.018490613 0.01449883 11435044
0.03378275 0.016138017 0.015380621 11434778
0.034301937 0.013789296 0.016256809 11500049
0.033580512 0.013014197 0.017352581 11565328
0.034105092 0.010671258 0.018220663 11434255
0.034009337 0.0091152191 0.019198537 11302926
0.033290625 0.0083429813 0.020290136 11302158
0.032571912 0.0075708032 0.021381855 11302408
0.031853199 0.0067985654 0.022473454 11302401
0.030506998 0.0068053603 0.023685813 11236866
0.029787391 0.0060321689 0.024778962 11301891
0.029067785 0.005259037 0.025871992 11367691
0.028348118 0.0044858456 0.026965022 11301906
0.027628511 0.0037126541 0.028058052 11236620
0.026908904 0.0029394627 0.029151082 11237126
0.026189297 0.0021662712 0.030244112 11236616
0.025469631 0.0013930798 0.031337142 11302154
0.023480564 0.0021625161 0.032693505 11302152
0.022759169 0.0013873577 0.033789277 11302407
0.020764679 0.0021509528 0.035153985 11236869
0.020041436 0.0013738871 0.036252499 11040003
0.018041521 0.0021317005 0.037625313 10843140
0.01475957 0.0044184327 0.039280653 10645764
0.012750655 0.0051665902 0.040667176 10449679
0.010738105 0.0059106946 0.042059183 10647066
0.010005862 0.0051239729 0.043171406 10778642
0.0079879463 0.0058623552 0.044571638 10582538
0.0066101253 0.0058352947 0.045831919 10320183
0.004585892 0.0065668821 0.047241807 12092517
0.0038491189 0.0057752728 0.048360825 13810044
0.0018194616 0.0065011382 0.049778819 14865043
0.029760092 0.042187274 0.006372571 14004060
0.03023836 0.039795041 0.0073050261 11634264
0.030720323 0.037406802 0.0082321167 10520659
0.032430053 0.033431411 0.0089533329 9408328
0.032308102 0.031847239 0.0099681616 9074748
0.032801777 0.029471517 0.01087749 8740895
0.033299088 0.027099729 0.011781216 8481025
0.035031348 0.023148537 0.012468219 8218395
0.0343045 0.022367597 0.013572335 9139764
0.033577681 0.021586657 0.014676213 10057005
0.034087569 0.019228399 0.015560865 9992741
0.033362567 0.018449366 0.016662121 9927709
0.033877879 0.01609689 0.017538428 9595413
0.033154666 0.015319824 0.018636942 9271827
0.033675402 0.012973189 0.019505143 10320145
0.032953978 0.012198031 0.020600915 11369226
0.033480138 0.0098571777 0.021460891 11368450
0.032760531 0.0090839863 0.022553921 11302402
0.032666475 0.0075299144 0.023526311 11302401
0.031321287 0.007537663 0.024739981 11302402
0.03060165 0.0067644715 0.025833011 11302147
0.029882044 0.0059912801 0.026926041 11367695
0.029162437 0.0052180886 0.028019071 11302170
0.027182609 0.0059971213 0.029367208 11302416
0.026461154 0.0052219629 0.03046298 11302406
0.025739759 0.0044468641 0.031558752 11301896
0.025018305 0.0036717653 0.032654524 11302153
0.02429691 0.0028966069 0.033750296 11367432
0.022306293 0.0036639571 0.035114765 11302151
0.020312041 0.004427433 0.036484838 11236868
0.01958701 0.0036484599 0.037586093 11040001
0.016312689 0.0059427619 0.039241195 10908420
0.014307648 0.0066946745 0.040627599 10711815
0.013577193 0.0059098601 0.04173708 10515216
0.011566728 0.0066558123 0.043131709 10581529
0.0095526278 0.0073980093 0.044531822 10713362
0.0081767142 0.0073728561 0.045792222 10516490
0.0074417889 0.0065832138 0.046908498 10319673
0.0041323006 0.0088397264 0.048617005 12096616
0.0033937395 0.0080462098 0.049738884 13879676
0.0013643205 0.0087718368 0.051162243 14798735
0.027697355 0.048541427 0.0069080591 16306049
0.028166503 0.046139598 0.007848978 14661486
0.031076163 0.040548444 0.008389473 12950367
0.03155607 0.038158357 0.009313941 11372368
0.033261687 0.03417927 0.010029912 9800264
0.032526731 0.033389628 0.011146307 10457152
0.032404661 0.031805515 0.012158394 11043635
0.032898128 0.029429853 0.013062239 9800999
0.033395171 0.027058184 0.0139606 8551476
0.03389585 0.02469027 0.014853477 8615488
0.034400135 0.022326291 0.015740991 8682813
0.033673286 0.021545351 0.016844869 8551481
0.034182966 0.019187152 0.017724156 8351530
0.033457935 0.018408179 0.018825412 7616539
0.032732904 0.017629147 0.019926667 6905365
0.033249825 0.015278757 0.020794868 9205519
0.033770323 0.012932181 0.021657586 11434504
0.034294426 0.01058948 0.022514939 11368706
0.03357482 0.0098162889 0.023607969 11302403
0.032855183 0.0090430975 0.024700999 11302147
0.030884653 0.0098316669 0.026040792 11302148
0.030163199 0.0090565681 0.027136564 11302404
0.029441804 0.0082814693 0.028232336 11302409
0.028720349 0.0075063109 0.029328108 11302415
0.027998954 0.0067312121 0.03042388 11302410
0.027277499 0.0059561133 0.031519651 11302150
0.026556104 0.0051809549 0.032615423 11302151
0.024571091 0.0059540272 0.033977151 11367688
0.022582501 0.0067232251 0.035344243 11367689
0.02185747 0.005944252 0.036445498 11302154
0.019863456 0.0067076087 0.037820935 11236873
0.019136578 0.0059266686 0.038924932 11105800
0.015864581 0.0082227588 0.04058814 10908937
0.013859779 0.0089744329 0.041979909 10712075
0.013127536 0.0081877112 0.043092132 10515473
0.01111725 0.0089336634 0.044492126 10581015
0.0097433031 0.008910358 0.045752406 10581521
0.0077267587 0.0096494555 0.047161937 10450442
0.0069899857 0.0088579059 0.048281074 10255416
0.0049680173 0.0095912814 0.049698949 12094566
0.0016554892 0.011843681 0.051423669 13942137
0.00091329217 0.01104629 0.052551031 14799757
0.028543264 0.049302161 0.0080031157 16177030
0.029010385 0.046898544 0.0089412928 14663040
0.031913906 0.041301847 0.0094739199 13150566
0.031173557 0.040506363 0.01059854 11308364
0.031653225 0.038116336 0.011517525 9470792
0.033358365 0.034137487 0.012222767 9931331
0.033235282 0.032552481 0.013233662 10456904
0.033726692 0.030174971 0.014134884 9143117
0.032994449 0.029388249 0.015246987 7833421
0.033491284 0.02701664 0.016140103 8355660
0.033991694 0.024648786 0.017027497 8949069
0.034495741 0.022284985 0.017909646 8948813
0.033768892 0.021504045 0.019013524 9013815
0.034278363 0.019145966 0.019887447 7947553
0.033553332 0.018366933 0.020988703 6901527
0.034068197 0.016014695 0.021854281 9136908
0.033344954 0.015237629 0.022952795 11435271
0.033865213 0.012891173 0.023810148 11368706
0.033143789 0.012116075 0.02490592 11301892
0.032422364 0.011340916 0.026001692 11367685
0.031700939 0.010565817 0.027097464 11367429
0.030979544 0.009790659 0.028193235 11367685
0.030258089 0.0090155602 0.029289007 11302404
0.028282374 0.0097982287 0.03064239 11302403
0.027559131 0.009021163 0.031740904 11236869
0.026835889 0.0082440972 0.032839417 11302406
0.026112705 0.0074670315 0.03393805 11302406
0.02412793 0.0082400441 0.035305023 11302406
0.0234029 0.0074610114 0.036406279 11367689
0.0214127 0.0082281828 0.037781596 11367948
0.020685881 0.0074472427 0.038885593 11368205
0.018690318 0.0082085133 0.040269017 11105806
0.016691118 0.0089660883 0.041658044 10843407
0.014688343 0.0097196102 0.043052435 10646543
0.012681931 0.010469317 0.044452429 10449938
0.011309892 0.010447919 0.04571259 10515733
0.010574907 0.009658277 0.046828866 10581520
0.0085604489 0.010399222 0.048241138 10450698
0.0065422952 0.011136353 0.049658895 10319927
0.0045205653 0.01186955 0.051082134 12097635
0.003780216 0.011074066 0.052206635 13945463
0.0017531216 0.011801541 0.053638101 14667147
-0.00027766824 0.012525082 0.055075049 15387012
0.029389173 0.050062895 0.0090981722 16043653
0.028641611 0.049259663 0.010233641 14662786
0.031537324 0.043655515 0.010761142 13279334
0.030795127 0.042858124 0.011888385 11174218
0.032488942 0.038867891 0.012599349 9076807
0.03297019 0.036479831 0.013510227 9471045
0.033455044 0.034095764 0.014415622 9863500
0.033331841 0.032510757 0.015423775 8481363
0.033823013 0.030133367 0.016319633 7041859
0.034317821 0.027759969 0.017210007 8090162
0.033587366 0.026975155 0.018319488 9143617
0.034087569 0.02460742 0.019201636 9411920
0.034591347 0.022243679 0.020078301 9593393
0.033864528 0.021462739 0.021182299 8258577
0.033137679 0.020681798 0.022286296 6897434
0.0336487 0.018325746 0.023151994 9136164
0.032923669 0.017546773 0.024253249 11368211
0.033440083 0.015196502 0.025110722 11368450
0.03271687 0.014419436 0.026209235 11302660
0.031993657 0.01364243 0.027307749 11368199
0.030023545 0.014430761 0.028658271 11433222
0.029298514 0.013651788 0.029759526 11367430
0.028573483 0.012872756 0.030860782 11302148
0.027848452 0.012093782 0.031962037 11236610
0.027123421 0.011314809 0.033063293 11171332
0.026398391 0.010535777 0.034164548 11236871
0.02567336 0.0097568035 0.035265803 11302664
0.023688823 0.010529637 0.03663826 11302410
0.022962004 0.0097487569 0.037742257 11302668
0.022235185 0.0089678168 0.038846254 11368205
0.021508366 0.0081868768 0.039950252 11433742
0.019514829 0.008949995 0.041336417 11105806
0.01624915 0.01125145 0.043012857 10712078
0.014246613 0.012004972 0.044412732 10514703
0.012876481 0.011985421 0.045672774 10318612
0.012141496 0.011195779 0.046789169 10450202
0.010130852 0.011940479 0.048201323 10581523
0.0081165731 0.012681425 0.049618959 10516493
0.0060986578 0.013418436 0.05104208 10387513
0.0053583086 0.012622952 0.052166581 12161126
0.0033350885 0.013354123 0.053597927 13876345
0.0025928915 0.012556732 0.05472517 14536332
0.001850754 0.011759341 0.055852532 15124615
0.02948752 0.050020397 0.011328697 14071427
0.031164676 0.046012878 0.012053609 12097893
0.031634957 0.043613315 0.012975574 11305799
0.032108694 0.041217685 0.013892055 10516807
0.032586098 0.038825929 0.014803052 10715718
0.033067107 0.036437929 0.015708447 10913872
0.034162462 0.033257723 0.016499043 10123097
0.033428401 0.032469034 0.017614007 9398073
0.033919364 0.030091763 0.018504381 9663256
0.034413904 0.027718425 0.019389391 9991990
0.033683449 0.02693361 0.020498872 9533267
0.034183413 0.024565995 0.021375656 9133354
0.033454776 0.023783088 0.022482395 8142337
0.033960134 0.021421432 0.023350954 7225886
0.033233315 0.020640492 0.024454951 9398075
0.033744067 0.018284559 0.025315166 11501598
0.033019036 0.017505527 0.026416421 11434497
0.032294005 0.016726553 0.027517676 11368197
0.031569004 0.01594758 0.028618932 11433737
0.030843943 0.015168548 0.029720187 11499016
0.030118912 0.014389575 0.030821443 11367686
0.028145462 0.015173972 0.032182932 11302148
0.027418643 0.014393032 0.033286929 11302401
0.026691824 0.013612092 0.034390926 11236612
0.025964946 0.012831151 0.035494924 11302663
0.025238127 0.012050211 0.036598921 11368459
0.024511307 0.011269271 0.037702918 11302926
0.023784488 0.010488331 0.038806915 11302926
0.02305761 0.0097074509 0.039910913 11368462
0.021067947 0.010474324 0.041296959 11368462
0.02033928 0.0096914172 0.042403698 11040270
0.017077714 0.011996567 0.044085383 10711566
0.015077204 0.012751937 0.045487881 10383374
0.013708085 0.01273334 0.046749353 10056215
0.011701256 0.013481796 0.048161387 10319135
0.009690851 0.014226556 0.049579024 10646551
0.00767681 0.014967263 0.051002026 10582031
0.0069364607 0.014171779 0.052126527 10518076
0.0049170554 0.014906764 0.053557754 12164201
0.0041748583 0.014109373 0.054684997 13814139
0.0034327209 0.013311982 0.055812359 14404237
0.031081051 0.051584303 0.011288285 15911300
0.031542033 0.049175203 0.012218595 13414275
0.033216923 0.045165956 0.012935281 10915939
0.032474756 0.044368565 0.014062643 11434052
0.032946438 0.041971028 0.014976501 11895360
0.033421814 0.039577484 0.015884757 11961404
0.033900797 0.037187696 0.016787648 11961398
0.034383386 0.034801841 0.017685056 11830065
0.034259021 0.033216 0.018689156 11696415
0.034747928 0.03083688 0.019577026 11303693
0.034015685 0.030050159 0.020689249 10843676
0.034509987 0.02767694 0.021568775 9726763
0.033779532 0.026892126 0.022678256 8611358
0.034279257 0.02452457 0.023549676 8082450
0.03355062 0.023741722 0.024656415 7560996
0.03405574 0.021380126 0.02551949 9597494
0.033328921 0.020599186 0.026623607 11631387
0.032602102 0.019818246 0.027727604 11500033
0.033114433 0.01746434 0.028579712 11368453
0.032389402 0.016685367 0.029680967 11433736
0.030421585 0.017475426 0.031039596 11499270
0.029694766 0.016694486 0.032143593 11433221
0.028967947 0.015913546 0.03324759 11302407
0.028241068 0.015132666 0.034351587 11302666
0.027514249 0.014351726 0.035455585 11302666
0.02678743 0.013570786 0.036559582 11368459
0.026060611 0.012789845 0.037663579 11368465
0.024078339 0.013564408 0.039044023 11368471
0.023349732 0.012781501 0.040150762 11302928
0.022621065 0.011998653 0.041257501 11302922
0.020631582 0.012765527 0.042648911 11302923
0.019901186 0.011980712 0.043758392 11040524
0.017906278 0.012741685 0.045158029 10711820
0.015274674 0.014270842 0.046709538 10250508
0.013271719 0.015023112 0.048121572 9794070
0.011265129 0.015771627 0.04953897 10254113
0.0092549026 0.016516089 0.050961852 10647326
0.0085145533 0.015720665 0.052086473 10647068
0.007774204 0.014925182 0.053210974 10585667
0.0057568252 0.015662014 0.054644823 12163178
0.0050146878 0.014864564 0.055772185 13745017
0.0029918253 0.015595555 0.05721426 14273415
0.03192696 0.052345037 0.012383342 15782531
0.032385916 0.049934089 0.013310909 13281923
0.031640142 0.049132824 0.014443755 10780514
0.033314556 0.045123756 0.015149713 11437120
0.033784211 0.042724431 0.016060948 12096313
0.033043832 0.041928947 0.01718545 12027697
0.03351897 0.039535522 0.01808846 11894813
0.03521502 0.0355497 0.018761635 11763721
0.035089642 0.033962965 0.019764423 11698182
0.034355611 0.033174276 0.020879388 11435266
0.034844249 0.030795276 0.021761775 11172866
0.034112006 0.030008495 0.022873998 10713090
0.034606069 0.027635396 0.023748279 10255379
0.033875644 0.026850581 0.024857759 9924643
0.034375101 0.024483144 0.025723696 9663018
0.033646494 0.023700297 0.026830435 10582064
0.032917857 0.02291739 0.027937174 11566617
0.033424526 0.02055788 0.028792262 11434753
0.032697707 0.01977694 0.029896259 11368452
0.031970888 0.018996 0.031000257 11434247
0.031244069 0.01821506 0.032104254 11499525
0.029274672 0.019003034 0.033470869 11433987
0.028546005 0.018220186 0.034577608 11368459
0.027817398 0.017437339 0.035684347 11302930
0.027088732 0.016654432 0.036791086 11302929
0.026360124 0.015871584 0.037897825 11302927
0.025631458 0.015088677 0.039004564 11368215
0.023649484 0.01586324 0.040390372 11368223
0.022919029 0.015078425 0.041499853 11433746
0.022188574 0.014293671 0.042609334 11368453
0.021458119 0.013508856 0.043718815 11368200
0.019467145 0.014273584 0.045118332 11040778
0.017472476 0.015034497 0.046523333 10778890
0.016106337 0.015018761 0.047786117 10449673
0.012839407 0.017316699 0.049499035 10122262
0.010833055 0.018064976 0.050921798 10385186
0.010092646 0.017269492 0.052046418 10713638
0.0080809891 0.018012047 0.053477407 10714665
0.0073387921 0.017214596 0.05460465 10717770
0.0065966547 0.016417205 0.055732012 12164971
0.0058544576 0.015619814 0.056859255 13614710
0.032772869 0.053105772 0.013478398 15581572
0.032025307 0.052302539 0.014613867 13084294
0.032484025 0.04989171 0.01553607 10586199
0.032946259 0.047484696 0.016452909 11437352
0.033412188 0.045081615 0.017364144 12290088
0.033881605 0.04268235 0.018269897 12092201
0.034354687 0.040287018 0.019170284 11829529
0.034831375 0.037895501 0.020065069 11763209
0.035311699 0.035507917 0.02095449 11632134
0.035186201 0.033921242 0.021954656 11566084
0.035672814 0.031540394 0.02283442 11500548
0.034940571 0.030753613 0.023946643 11697156
0.034208328 0.029966891 0.025058866 11828235
0.033476084 0.029180169 0.026171088 11763219
0.032743841 0.028393388 0.027283311 11696662
0.033241302 0.026024282 0.028146625 11566106
0.032510847 0.025239468 0.029256105 11435023
0.033013701 0.022876024 0.030111194 11434757
0.032285064 0.022093117 0.031217933 11368966
0.032793313 0.019735634 0.032064795 11434758
0.032066494 0.018954694 0.033168912 11434501
0.028858632 0.021315396 0.03480351 11434243
0.028128177 0.020530581 0.035912991 11368712
0.02864185 0.018178761 0.036751628 11302925
0.026667327 0.018960953 0.038131952 11237388
0.025936872 0.018176198 0.039241433 11302924
0.025206417 0.017391384 0.040350914 11368464
0.024476022 0.016606569 0.041460395 11433748
0.023745567 0.015821755 0.042569757 11499276
0.021760195 0.016592205 0.043966532 11433988
0.021027952 0.015805483 0.045078754 11368454
0.020295709 0.015018702 0.046190977 11106311
0.018303126 0.015781462 0.0475986 10843913
0.016937941 0.015766621 0.048862696 10646539
0.013675123 0.018068254 0.050580859 10384919
0.011670798 0.018818378 0.052006364 10582051
0.009662956 0.019564629 0.053437233 10713890
0.0076513588 0.020307064 0.054873705 10780193
0.0081786215 0.017969847 0.055691838 10783300
0.0074364245 0.017172456 0.056819081 12098408
0.007968992 0.01484102 0.057628989 13416053
0.032871217 0.053063273 0.015708923 12755336
0.032123655 0.052260041 0.016844392 10188620
0.033788085 0.048241735 0.017542601 10976527
0.03304413 0.047442436 0.018672585 11830808
0.032300144 0.046643078 0.01980269 11830561
0.032767653 0.044242024 0.020705819 11829781
0.033238649 0.041844785 0.021603465 11763720
0.033713311 0.03945154 0.022495747 11697671
0.034191579 0.037062049 0.023382425 11631878
0.034673423 0.034676492 0.02426374 11566086
0.03454873 0.03309083 0.025259733 11631365
0.033814698 0.032302141 0.026374698 11761924
0.033080637 0.031513453 0.027489662 11696899
0.033572435 0.029138505 0.028355837 11631363
0.032840192 0.028351784 0.02946806 11565827
0.032107919 0.027565002 0.030580282 11500294
0.03260693 0.025197923 0.03143549 11434761
0.031876504 0.024413109 0.032544971 11434759
0.031146079 0.023628294 0.033654451 11434757
0.031652272 0.021268845 0.034498692 11500036
0.029685169 0.022058725 0.035873413 11500035
0.027714461 0.022844553 0.037253618 11499781
0.028224319 0.020489097 0.038092375 11499527
0.027493864 0.019704282 0.039201856 11499528
0.026763409 0.018919468 0.040311337 11434249
0.024785489 0.019697547 0.04170239 11434249
0.024053246 0.018910825 0.042814612 11499529
0.023321003 0.018124104 0.043926835 11499270
0.02133587 0.018894494 0.045328975 11565315
0.020601839 0.018105805 0.046443939 11631108
0.019239515 0.018093824 0.047706604 11237380
0.017246217 0.018855453 0.049121022 10909448
0.016509503 0.018063843 0.05024004 10712588
0.01451084 0.018819809 0.051662683 10516504
0.011244923 0.02111727 0.053397059 10647844
0.010502726 0.020319879 0.054524302 10844702
0.0084932148 0.021064103 0.055963397 10847000
0.0077492297 0.020264804 0.057093501 10847551
0.0057343543 0.021003246 0.058540702 11968357
0.032516807 0.055437207 0.017019749 12426101
0.031767428 0.054632068 0.018157959 9795154
0.032222003 0.052217603 0.019074917 10580014
0.032680243 0.049806893 0.019986391 11304484
0.03193447 0.049005628 0.021119118 11569177
0.033607453 0.044997215 0.021792889 11830808
0.034076393 0.042598188 0.022688031 11764247
0.034549028 0.040203094 0.023577571 11698193
0.033810467 0.039409578 0.02469933 11697675
0.034288496 0.037020147 0.025580645 11631882
0.034770131 0.034634709 0.026456594 11631368
0.034645289 0.033049107 0.027449965 11631367
0.033911258 0.032260418 0.02856493 11631109
0.033177197 0.031471729 0.029679894 11565829
0.033668756 0.029096901 0.030540586 11565573
0.032936513 0.02831018 0.031652808 11500301
0.03220427 0.027523398 0.032765031 11500054
0.031472027 0.026736677 0.033877254 11500045
0.030739754 0.025949895 0.034989476 11500037
0.031242162 0.02358681 0.035833836 11500037
0.029275268 0.024376452 0.037213922 11565572
0.028543025 0.023589671 0.038326144 11565317
0.027810782 0.022802949 0.039438367 11630598
0.027078539 0.022016168 0.04055059 11696391
0.025102645 0.022796214 0.041944385 11630856
0.024368614 0.022007525 0.043059349 11499789
0.023634583 0.021218836 0.044174314 11500051
0.022900552 0.020430148 0.045289278 11499788
0.022166461 0.019641459 0.046404243 11696389
0.020806104 0.019631326 0.047666788 11827460
0.020071119 0.018841684 0.048783064 11433987
0.018079907 0.01960516 0.050200105 10974981
0.016085118 0.020364881 0.051622629 10777351
0.014086694 0.021120608 0.053050637 10581781
0.012084693 0.02187252 0.054484129 10778915
0.011342555 0.02107507 0.055611491 10912055
0.0093350112 0.021821201 0.057053208 10915659
